ply
format ascii 1.0
comment Author: CloudCompare (TELECOM PARISTECH/EDF R&D)
obj_info Generated by CloudCompare!
element vertex 1907
property float x
property float y
property float z
end_header
16.6439 -3.69694 8.1232 
16.0534 -22.0096 8.1232 
16.2353 -33.0272 8.1232 
16.4979 16.9331 8.1232 
16.0817 0.376299 8.1232 
16.6408 -13.5316 8.1232 
16.2379 -6.98385 8.1232 
16.2815 -14.2426 8.1232 
15.5469 -25.3115 8.1232 
16.9181 -13.3728 8.1232 
16.5614 -10.8013 8.1232 
16.9102 16.4152 8.1232 
16.906 -21.185 8.1232 
15.6098 -22.7132 8.1232 
16.8489 9.41483 8.1232 
15.5816 -20.5348 8.1232 
15.8994 -14.0282 8.1232 
16.1482 -15.7884 8.1232 
16.7866 -4.51328 8.1232 
16.4553 -21.6272 8.1232 
16.5011 -3.59049 8.1232 
16.7037 -9.22419 8.1232 
15.8502 -30.734 8.1232 
15.6787 -14.3951 8.1232 
16.8139 13.3957 8.1232 
16.1621 -23.6874 8.1232 
16.2893 6.33523 8.1232 
15.8747 -25.279 8.1232 
16.5165 12.3686 8.1232 
15.6114 -14.2057 8.1232 
16.865 10.0377 8.1232 
15.2432 -25.4693 8.1232 
15.4778 -30.2306 8.1232 
16.6539 20.8006 8.1232 
15.9237 -22.6411 8.1232 
16.235 -27.0497 8.1232 
16.4396 -18.6053 8.1232 
16.1293 3.56429 8.1232 
15.8136 -34.039 8.1232 
15.6648 -18.4305 8.1232 
16.2573 -31.3057 8.1232 
16.8205 10.1504 8.1232 
16.829 -22.1224 8.1232 
16.4923 5.63268 8.1232 
16.8937 7.06781 8.1232 
16.5986 -13.1233 8.1232 
15.9106 -24.7398 8.1232 
15.6144 -28.8686 8.1232 
15.5892 -30.2715 8.1232 
15.4214 -23.2066 8.1232 
16.504 -2.95069 8.1232 
16.5702 -25.3423 8.1232 
15.6539 -25.8764 8.1232 
15.4155 -33.5039 8.1232 
16.5372 17.3032 8.1232 
15.3289 -28.3344 8.1232 
16.7345 -2.77606 8.1232 
15.9303 -6.43562 8.1232 
16.5974 18.7802 8.1232 
16.8568 23.4111 8.1232 
15.7423 -25.9752 8.1232 
15.5488 -23.0503 8.1232 
16.8599 0.86842 8.1232 
16.8358 18.0232 8.1232 
15.1644 -28.0573 8.1232 
15.9449 -26.9801 8.1232 
16.1303 -1.32774 8.1232 
15.8437 -25.791 8.1232 
16.3292 -30.0499 8.1232 
16.5725 -15.1886 8.1232 
-4.91546 -35.2444 8.1232 
14.4105 -34.4697 8.1232 
16.6313 -35.5807 8.1232 
9.82672 -35.1263 8.1232 
10.758 -35.4531 8.1232 
15.3297 -34.6797 8.1232 
9.59234 -34.6809 8.1232 
10.3811 -35.3268 8.1232 
11.6106 -35.4907 8.1232 
-1.71964 -35.5231 8.1232 
1.15976 -35.2552 8.1232 
16.1227 -35.3528 8.1232 
11.4273 -34.879 8.1232 
12.5893 -35.0939 8.1232 
9.60311 -34.3884 8.1232 
4.05585 -35.3057 8.1232 
10.2583 -34.236 8.1232 
-2.6071 -35.0261 8.1232 
12.6865 -33.9508 8.1232 
14.6086 -34.3035 8.1232 
3.94619 -34.4746 8.1232 
7.77202 -34.7037 8.1232 
4.02662 -35.5158 8.1232 
-9.1889 -35.2731 8.1232 
16.2314 -35.3813 8.1232 
10.8336 -35.6006 8.1232 
10.0251 -35.5963 8.1232 
-4.40611 -35.4677 8.1232 
12.0848 -34.0297 8.1232 
13.5899 -34.8559 8.1232 
12.2847 -34.8364 8.1232 
9.94521 -34.6808 8.1232 
1.00832 -35.241 8.1232 
-5.12456 -35.4469 8.1232 
8.67461 -34.1109 8.1232 
8.72592 -34.5855 8.1232 
3.70128 -35.4338 8.1232 
11.4582 -33.9729 8.1232 
-6.07263 -35.1377 8.1232 
13.9703 -34.373 8.1232 
0.0631104 -35.4272 8.1232 
10.3594 -35.553 8.1232 
5.76075 -34.3175 8.1232 
12.367 -34.8278 8.1232 
9.98496 -35.6215 8.1232 
-1.43416 -35.3837 8.1232 
-8.83335 -35.57 8.1232 
-4.78565 -35.1779 8.1232 
2.93111 -35.2763 8.1232 
14.1601 -35.1009 8.1232 
7.36257 -35.1535 8.1232 
6.9799 -35.4373 8.1232 
11.9307 -34.6485 8.1232 
9.694 -35.2499 8.1232 
16.9291 -5.20368 7.69797 
16.9291 7.57233 7.75958 
16.9291 -2.10892 7.99066 
16.9291 -20.951 6.60474 
16.9291 -26.3138 7.5415 
16.9291 -12.6602 6.96523 
16.9291 -16.2266 7.19708 
16.9291 -23.6286 6.66033 
16.9291 9.18549 7.72838 
16.9291 -20.9602 7.4352 
16.9291 -28.153 7.99586 
16.9291 -32.9322 5.8078 
16.9291 4.60305 7.18598 
16.9291 -35.3484 8.10087 
16.9291 0.289799 7.73518 
16.9291 -31.8821 6.51176 
16.9291 -30.4323 7.36417 
16.9291 -12.9547 7.83077 
16.9291 -25.4865 5.94706 
16.9291 -16.8065 6.7635 
16.9291 -12.0194 7.55731 
16.9291 -19.8952 6.46951 
16.9291 -17.2213 6.25764 
16.9291 -6.87593 7.22667 
16.9291 -12.8087 6.91236 
16.9291 -15.4467 7.23054 
16.9291 -10.2162 7.3347 
16.9291 -7.15583 8.02567 
16.9291 -22.525 5.899 
16.9291 -24.6512 7.55037 
16.9291 6.13019 7.82583 
16.9291 1.7514 7.38076 
16.9291 -4.81863 7.84332 
16.9291 -27.7192 5.88274 
16.9291 -34.6604 6.43063 
16.9291 -33.8064 5.99197 
16.9291 -12.6456 7.83199 
16.9291 -8.67405 7.05051 
16.9291 -14.8732 7.63784 
16.9291 -18.3657 7.52551 
16.9291 7.82697 7.57468 
16.9291 9.06218 7.13393 
16.9291 10.3456 7.36304 
16.9291 4.18865 8.11259 
16.9291 -4.65907 7.83678 
16.9291 -10.3456 8.0528 
16.9291 -32.3539 6.20878 
16.9291 -9.3833 6.50442 
16.9291 -10.9203 7.61066 
16.9291 -25.4697 7.26012 
16.9291 -3.78678 7.99827 
16.9291 -1.44036 7.28308 
16.9291 5.48319 7.33166 
16.9291 -12.9034 7.30804 
16.9291 6.16218 7.35485 
16.9291 -26.4832 6.57207 
16.9291 -32.0472 5.67273 
16.9291 -31.1222 6.81476 
16.9291 8.53222 7.17767 
16.9291 0.432068 6.801 
16.9291 -8.29831 7.77571 
16.9291 -22.2004 6.30816 
16.9291 6.76481 7.18275 
16.9291 -32.1801 7.73062 
16.9291 -13.7853 6.80551 
16.9291 -25.5989 8.12317 
16.9291 -19.9324 7.89463 
16.9291 -28.2189 6.66906 
16.9291 3.3511 7.99379 
16.9291 -13.6272 6.71528 
16.9291 -12.2113 6.81562 
16.9291 28.3796 7.92488 
16.9291 -10.1016 6.87559 
16.9291 -8.42733 6.67803 
16.9291 -9.09097 6.50055 
16.9291 -34.1153 6.64989 
16.9291 -21.0995 7.47923 
16.9291 -11.0055 7.04382 
16.9291 -16.2056 6.16419 
16.9291 12.2997 7.72071 
16.9291 -27.173 6.53789 
16.9291 -24.1772 7.73296 
16.9291 -11.7891 7.0477 
16.9291 -24.8793 6.44276 
16.9291 8.28681 7.91014 
16.9291 -1.13458 7.52729 
16.9291 -16.9641 7.64837 
16.9291 -11.9103 7.22248 
16.9291 -27.9771 6.05443 
16.9291 -19.4368 6.1336 
16.9291 -28.6105 7.03936 
16.9291 -24.9438 5.99239 
16.9291 -14.9138 7.18831 
16.9291 14.3795 7.71543 
16.9291 -24.9636 7.68141 
16.9291 -33.0606 6.23638 
16.9291 -10.101 7.93867 
16.9291 -0.922638 7.17462 
16.9291 -6.28229 7.78308 
16.9291 7.06742 7.45729 
16.9291 -30.5768 7.42429 
16.9291 -31.0593 6.22137 
16.9291 -12.7701 7.32159 
16.9291 10.3741 7.26119 
16.9291 -19.0294 7.6397 
16.9291 5.72392 7.92299 
16.9291 -6.64842 7.9892 
16.9291 -11.1026 6.89966 
16.9291 18.4859 7.87888 
16.9291 14.8923 7.48205 
16.9291 -22.0697 7.5898 
16.9291 22.2705 7.98287 
16.9291 13.697 7.67115 
16.9291 -20.3677 7.20962 
16.9291 11.4308 7.45353 
16.9291 20.5215 7.86145 
16.9291 -24.2644 7.6563 
16.9291 -2.67907 7.37196 
16.9291 15.6664 7.69902 
16.9291 -16.9428 6.93001 
16.9291 -25.6345 7.15381 
16.9291 -25.5723 6.3896 
16.9291 -10.3544 7.56251 
16.9291 -34.2116 6.87918 
16.9291 -0.805405 7.97695 
16.9291 -14.7346 6.50591 
16.9291 -17.4185 7.92472 
16.9291 -19.1648 7.29313 
16.9291 14.5242 7.95415 
16.9291 7.02298 7.57332 
16.9291 -25.4158 7.53906 
16.9291 8.21352 7.5539 
16.9291 -2.25812 6.68645 
16.9291 7.7302 8.03022 
16.9291 -12.6896 7.66109 
16.9291 -19.865 8.03405 
16.9291 -28.8167 7.55646 
16.9291 -29.6626 7.46507 
16.9291 19.5287 7.68569 
16.9291 -21.7548 6.40338 
16.9291 17.8245 7.78617 
16.9291 -25.1173 7.10312 
16.9291 -21.1651 6.98107 
16.9291 -35.2822 5.92994 
16.9291 -35.186 6.65442 
16.9291 -2.23855 7.15892 
16.9291 20.3707 8.08941 
16.9291 2.44857 7.54897 
16.9291 -29.8574 6.9227 
16.9291 -29.5797 6.14604 
16.9291 7.59472 7.82889 
16.9291 -17.585 7.00257 
16.9291 -29.291 7.94352 
16.9291 -22.4712 6.91274 
16.9291 -3.69644 7.86437 
16.9291 12.5039 7.83665 
16.9291 -34.522 5.4962 
16.9291 -9.73381 8.04415 
16.9291 -16.3079 7.34707 
16.9291 -7.50874 6.71619 
16.9291 6.28907 7.73256 
16.9291 10.8021 7.76438 
16.9291 9.11533 6.62535 
16.9291 27.966 6.45663 
16.9291 31.7491 6.04622 
16.9291 20.2073 5.67748 
16.9291 29.9975 7.32596 
16.9291 5.0444 6.6544 
16.9291 21.5171 5.48059 
16.9291 -4.18879 6.11389 
16.9291 -14.9312 5.67832 
16.9291 16.8768 5.56993 
16.9291 -29.6831 5.5526 
16.9291 -26.8668 5.5332 
16.9291 6.31688 6.65192 
16.9291 -8.65408 5.54456 
16.9291 15.6341 5.51817 
16.9291 -32.5984 5.38857 
16.9291 7.66047 6.80794 
16.9291 2.33539 5.41845 
16.9291 -16.9018 5.84682 
16.9291 -4.52085 5.70487 
16.9291 -3.66452 6.26961 
16.9291 22.9157 6.75141 
16.9291 25.1388 5.64578 
16.9291 9.83781 6.92178 
16.9291 -20.8655 5.69719 
16.9291 27.6773 5.45095 
16.9291 34.4125 5.88612 
16.9291 15.7431 5.39904 
16.9291 -30.1648 5.39551 
16.9291 13.2848 6.78313 
16.9291 22.968 5.82416 
16.9291 7.69032 5.90044 
16.9291 34.6616 5.66147 
16.9291 6.31294 6.89238 
16.9291 22.33 7.286 
16.9291 8.02894 6.83454 
16.9291 20.9364 7.13036 
16.9291 23.7279 5.92304 
16.9291 26.8558 6.84868 
16.9291 -27.2373 5.5004 
16.9291 27.0488 7.71884 
16.9291 21.6483 6.37169 
16.9291 24.2256 6.40283 
16.9291 15.4511 7.08654 
16.9291 24.79 6.8224 
16.9291 34.3137 5.67563 
16.9291 20.8282 6.24521 
16.9291 -9.55253 5.70428 
16.9291 10.9337 5.78678 
16.9291 20.9513 6.42805 
16.9291 0.101593 6.37604 
16.9291 21.8661 5.75182 
16.9291 7.11279 5.42029 
16.9291 16.464 6.55676 
16.9291 0.96756 6.5509 
16.9291 -12.7822 5.41086 
16.9291 33.7051 6.29004 
16.9291 -16.3534 5.7266 
16.9291 34.2546 6.99647 
16.9291 31.5328 7.46925 
16.9291 -6.84933 6.24681 
16.9291 22.2473 6.36791 
16.9291 6.17478 6.55965 
16.9291 14.2107 6.03906 
16.9291 -0.940624 5.90885 
16.9291 11.4703 5.62285 
16.9291 11.752 5.64798 
16.9291 24.4798 5.44077 
16.9291 35.0177 6.67625 
16.9291 11.3399 6.71193 
16.9291 5.19355 5.88586 
16.9291 3.49964 6.37082 
16.9291 23.1428 6.90395 
16.9291 16.9701 6.74435 
16.9291 20.7046 6.2482 
16.9291 11.9273 7.18934 
16.9291 0.235374 6.26242 
16.9291 -10.0183 6.0186 
16.9291 -14.7442 5.58773 
16.9291 15.5729 7.21269 
16.9291 2.99314 5.78323 
16.9291 14.0179 6.67228 
16.9291 30.061 5.91582 
16.9291 28.0557 7.46774 
16.9291 33.7271 7.09332 
16.9291 34.8227 6.40618 
16.9291 34.2387 7.31797 
16.9291 24.8426 6.95729 
16.9291 22.4131 6.468 
16.9291 17.66 6.61938 
16.9291 7.10318 5.87091 
16.9291 8.38548 5.55938 
16.9291 17.4283 6.45349 
16.9291 0.0728226 5.91059 
16.9291 19.2752 6.13494 
16.9291 34.4326 6.68305 
16.9291 -17.4614 5.95822 
16.9291 9.43638 5.45498 
16.9291 -23.1801 5.45266 
16.9291 -16.0907 5.64768 
16.9291 -12.0179 6.00806 
16.9291 -16.1967 5.52172 
16.9291 25.2962 7.66781 
16.9291 23.738 7.46345 
16.9291 10.4551 5.38459 
16.9291 20.4414 7.06882 
16.9291 17.5406 7.11025 
16.9291 11.5813 6.82706 
16.9291 12.1538 7.1242 
16.9291 26.8307 5.43743 
16.9291 -12.8364 5.78417 
16.9291 -19.9172 5.83326 
16.9291 32.9022 5.64415 
16.9291 -26.4279 5.57852 
16.9291 13.9278 5.8022 
16.9291 24.4471 5.49571 
16.9291 30.3281 5.66754 
16.9291 33.7046 5.43831 
16.9291 30.1087 5.62757 
16.9291 -10.7979 5.55042 
16.9291 21.8399 7.30652 
16.9291 8.32978 6.78351 
16.9291 9.1457 5.39085 
16.9291 6.81228 5.77232 
16.9291 2.6886 5.74175 
16.9291 16.7135 6.69959 
16.9291 15.5917 6.26561 
16.9291 4.55251 6.55225 
16.9291 32.8937 5.7988 
16.9291 20.7144 5.43309 
16.9291 27.3116 5.51084 
16.9291 22.8154 5.9879 
16.9291 3.70207 6.31398 
16.9291 29.8309 5.59705 
16.9291 -10.2924 6.07474 
16.9291 9.95519 5.47705 
16.9291 4.38753 6.25416 
16.9291 28.6069 6.87379 
16.9291 -1.83165 6.01462 
16.9291 29.721 6.70523 
16.9291 14.2711 6.77717 
16.9291 -18.5851 5.64357 
16.9291 27.906 5.50587 
16.9291 35.5429 7.91158 
16.9291 26.9199 6.09533 
16.9291 4.9215 6.09683 
16.9291 -4.72415 6.32486 
16.9291 14.8995 6.79105 
16.9291 -5.03773 6.38819 
16.9291 -10.6579 5.57254 
16.9291 -3.96776 5.99859 
16.9291 0.786427 5.46698 
16.9291 14.1122 6.6427 
16.9291 22.3645 7.0272 
16.9291 24.9555 7.2605 
16.9291 30.4474 7.4436 
16.9291 31.1963 6.77322 
16.9291 -26.5823 5.39438 
16.9291 14.1321 5.53581 
16.9291 17.684 6.40778 
16.9291 1.65715 5.98179 
16.9291 26.2481 6.96444 
-15.0494 -35.6299 7.19725 
1.56613 -35.6299 6.57938 
-8.47226 -35.6299 7.06647 
3.79601 -35.6299 6.35134 
-7.01968 -35.6299 6.41293 
-15.1806 -35.6299 7.8317 
-8.58152 -35.6299 5.62254 
13.1412 -35.6299 5.51701 
-4.62158 -35.6299 6.00842 
5.3019 -35.6299 5.39732 
3.67189 -35.6299 5.83713 
11.8643 -35.6299 5.4727 
-9.09752 -35.6299 5.64546 
-4.42965 -35.6299 6.62116 
-14.6875 -35.6299 7.06818 
-15.1508 -35.6299 7.74964 
-7.72269 -35.6299 5.51402 
-2.37311 -35.6299 5.79222 
-14.0219 -35.6299 6.70304 
-8.98489 -35.6299 6.68994 
-4.94895 -35.6299 6.73905 
1.57326 -35.6299 5.59399 
-15.2 -35.6299 7.31545 
-14.7765 -35.6299 6.40167 
-4.8561 -35.6299 6.98958 
1.68476 -35.6299 6.0616 
3.85958 -35.6299 6.08777 
-15.189 -35.6299 6.0802 
-13.5214 -35.6299 6.80137 
-3.27658 -35.6299 6.34372 
-9.56952 -35.6299 6.56705 
-9.41536 -35.6299 5.58058 
11.2888 -35.6299 5.378 
-4.86913 -35.6299 6.09044 
-11.1103 -35.6299 7.30187 
-8.91898 -35.6299 6.87379 
-2.99861 -35.6299 6.02215 
-7.75977 -35.6299 7.21741 
-2.37478 -35.6299 5.40985 
-9.46886 -35.6299 7.50877 
10.8544 -35.6299 5.59462 
-9.21897 -35.6299 5.59507 
-8.88628 -35.6299 6.84826 
-3.39087 -35.6299 5.93773 
-6.1455 -35.6299 6.2185 
-7.09896 -35.6299 6.66489 
-13.7485 -35.6299 5.81955 
-16.8823 -35.6299 7.64742 
-12.8087 -35.6299 6.44156 
10.0462 -35.6299 5.41875 
-9.04205 -35.6299 5.95295 
3.24398 -35.6299 5.78019 
-16.7601 -35.6299 6.36287 
-3.37256 -35.6299 6.90142 
-7.25567 -35.6299 6.73639 
-9.95934 -35.6299 6.40357 
-16.4072 -35.6299 7.16606 
-14.9184 -35.6299 6.31938 
-7.8799 -35.6299 5.85837 
-16.7012 -35.6299 6.14857 
-7.18331 -35.6299 6.27643 
4.90758 -35.6299 5.98574 
-12.5888 -35.6299 7.28731 
-3.46484 -35.6299 6.54035 
2.3426 -35.6299 6.15066 
-11.4434 -35.6299 5.87009 
-2.08472 -35.6299 6.66146 
3.2427 -35.6299 6.22894 
-5.06672 -35.6299 5.64522 
-15.514 -35.6299 6.86498 
-2.70975 -35.6299 6.55756 
5.33504 -35.6299 5.77998 
-5.05709 -35.6299 6.53281 
4.63024 -35.6299 5.90979 
-10.2144 -35.6299 5.74984 
-2.27051 -35.6299 5.95304 
-12.0781 -35.6299 6.08292 
-13.2431 -35.6299 8.04877 
8.71724 -35.6299 6.46224 
6.63294 -35.6299 7.29284 
-1.12671 -35.6299 7.14521 
13.6566 -35.6299 7.94405 
0.586481 -35.6299 6.81099 
8.24396 -35.6299 7.10879 
12.3438 -35.6299 7.45863 
-10.5345 -35.6299 7.96536 
-1.35526 -35.6299 7.15333 
10.6783 -35.6299 8.09261 
16.739 -35.6299 5.50261 
6.34384 -35.6299 7.21364 
3.02011 -35.6299 7.31547 
16.0606 -35.6299 6.08473 
12.8331 -35.6299 5.82104 
1.30707 -35.6299 7.23514 
6.56278 -35.6299 6.79505 
9.79108 -35.6299 6.79823 
-7.78426 -35.6299 7.43757 
-3.09591 -35.6299 7.53495 
16.0905 -35.6299 5.7262 
15.937 -35.6299 5.67556 
-0.211851 -35.6299 7.22355 
-11.1487 -35.6299 7.73816 
15.8617 -35.6299 5.87285 
2.41072 -35.6299 7.30591 
5.29863 -35.6299 6.43875 
-6.06458 -35.6299 7.62616 
16.5097 -35.6299 6.67926 
4.17807 -35.6299 7.0723 
13.9242 -35.6299 6.13826 
4.90233 -35.6299 6.61341 
4.08914 -35.6299 7.11264 
8.52107 -35.6299 6.80173 
-4.03619 -35.6299 8.01122 
9.20298 -35.6299 7.20176 
3.79806 -35.6299 6.87138 
15.5277 -35.6299 6.50704 
-1.16873 -35.6299 7.91547 
13.0307 -35.6299 6.82287 
-4.5539 -35.6299 7.66572 
14.3687 -35.6299 6.29352 
-2.03097 -35.6299 7.8643 
9.34906 -35.6299 6.32904 
0.035099 -35.6299 6.86978 
4.64815 -35.6299 7.25234 
0.70269 -35.6299 7.05574 
16.4582 -35.6299 7.81829 
13.3949 -35.6299 6.20657 
10.7754 -35.6299 7.85313 
6.02537 -35.6299 8.03293 
12.9184 -35.6299 5.74017 
14.014 -35.6299 6.935 
15.4694 -35.6299 5.84835 
14.2604 -35.6299 8.02457 
8.0396 -35.6299 6.48632 
-13.6308 -35.6299 8.00078 
3.37138 -35.6299 6.87792 
-13.6885 -35.6299 7.95936 
-3.38925 -35.6299 7.03432 
-9.80184 -35.6299 7.74097 
12.9799 -35.6299 6.16339 
-2.80278 -35.6299 7.56028 
6.26441 -35.6299 6.28725 
12.5686 -35.6299 6.26846 
-13.1234 -35.6299 7.83274 
10.1183 -35.6299 7.57525 
11.3417 -35.6299 7.14214 
7.92264 -35.6299 6.81253 
0.773653 -35.6299 7.24748 
14.2233 -35.6299 5.66446 
-7.72263 -35.6299 8.02759 
3.74231 -35.6299 6.89138 
12.4542 -35.6299 6.81444 
16.5105 -35.6299 6.85908 
1.61027 -35.6299 6.88798 
10.7606 -32.1376 8.1232 
5.93088 -33.6133 8.1232 
6.40899 -33.4946 8.1232 
-13.064 -33.6768 8.1232 
6.12186 -33.0024 8.1232 
13.696 -33.0304 8.1232 
2.39306 -32.8361 8.1232 
11.4671 -32.5758 8.1232 
-0.417665 -33.5578 8.1232 
7.16557 -33.1266 8.1232 
4.16 -33.3332 8.1232 
11.5614 -32.5862 8.1232 
7.88311 -33.4203 8.1232 
-1.35039 -33.4461 8.1232 
-1.14542 -33.1004 8.1232 
1.71859 -33.3983 8.1232 
11.569 -33.6113 8.1232 
1.18647 -33.3847 8.1232 
-2.41783 -32.9977 8.1232 
5.25243 -33.1728 8.1232 
-6.71747 -33.2904 8.1232 
2.77672 -32.6546 8.1232 
5.02967 -33.4292 8.1232 
6.21082 -33.4547 8.1232 
7.17174 -33.2874 8.1232 
-3.20051 -33.6705 8.1232 
10.8286 -31.9328 8.1232 
11.3319 -32.7515 8.1232 
9.38618 -33.2991 8.1232 
9.92256 -33.0273 8.1232 
6.50079 -32.7105 8.1232 
6.54274 -33.6253 8.1232 
13.9709 -32.74 8.1232 
0.535684 -32.9333 8.1232 
13.4155 -32.644 8.1232 
11.6037 -32.3279 8.1232 
-2.73809 -33.1847 8.1232 
6.1632 -32.9717 8.1232 
-4.86932 -33.1047 8.1232 
14.1014 -33.084 8.1232 
10.7928 -33.064 8.1232 
-4.04939 -33.647 8.1232 
12.7274 -32.8318 8.1232 
0.948549 -32.8695 8.1232 
4.98731 -32.8148 8.1232 
6.06315 -32.4689 8.1232 
-5.96274 -33.6782 8.1232 
6.29547 -33.1539 8.1232 
9.41742 -32.4701 8.1232 
-1.2534 -33.6094 8.1232 
14.9324 3.73434 8.1232 
14.767 -20.6114 8.1232 
13.3998 -31.6976 8.1232 
14.1327 -8.05489 8.1232 
14.3104 7.54175 8.1232 
14.6703 -1.72757 8.1232 
14.9411 -12.1888 8.1232 
14.5281 -17.3944 8.1232 
14.7074 7.35879 8.1232 
14.7519 22.3698 8.1232 
14.5208 -16.5175 8.1232 
14.566 -15.6688 8.1232 
14.0821 -15.8198 8.1232 
13.5634 -18.5517 8.1232 
14.4775 -15.5749 8.1232 
14.1725 4.25049 8.1232 
14.0447 -11.4203 8.1232 
14.3584 -31.7441 8.1232 
14.9451 15.0511 8.1232 
14.8134 -23.5659 8.1232 
14.0294 0.0373764 8.1232 
14.1764 4.15521 8.1232 
13.9837 -9.85921 8.1232 
13.9556 -28.9715 8.1232 
14.6972 12.2849 8.1232 
14.5678 -27.8854 8.1232 
14.6602 -16.7511 8.1232 
13.7491 -17.6099 8.1232 
14.7972 -12.1432 8.1232 
14.834 -33.0744 8.1232 
13.7232 -10.7609 8.1232 
13.7096 -10.089 8.1232 
14.3156 -6.58795 8.1232 
14.1288 -30.1855 8.1232 
14.3089 -6.9935 8.1232 
14.7114 16.8565 8.1232 
14.6767 -13.6501 8.1232 
13.8092 -25.7663 8.1232 
14.8776 15.345 8.1232 
14.4132 -0.812122 8.1232 
14.5916 -13.0657 8.1232 
14.5865 -15.0009 8.1232 
13.6906 -26.9758 8.1232 
13.5761 -23.8224 8.1232 
13.7445 -8.32413 8.1232 
14.7124 -2.4405 8.1232 
14.4338 13.3302 8.1232 
13.7898 -29.809 8.1232 
13.1986 -25.6071 8.1232 
14.5339 -19.9277 8.1232 
14.6997 16.1781 8.1232 
13.6926 -27.9266 8.1232 
14.4931 5.42852 8.1232 
13.8872 -29.6666 8.1232 
14.4696 -29.7567 8.1232 
14.9648 26.828 8.1232 
14.3825 0.678307 8.1232 
14.5271 -14.434 8.1232 
13.8393 -20.5033 8.1232 
13.9296 -18.0264 8.1232 
13.2998 -28.2279 8.1232 
14.7293 -6.73512 8.1232 
13.6905 -18.7802 8.1232 
14.6083 16.2807 8.1232 
14.6757 2.59414 8.1232 
13.7579 -15.8543 8.1232 
14.5256 16.4245 8.1232 
14.2267 -18.1134 8.1232 
14.8536 -26.1752 8.1232 
14.266 -5.22605 8.1232 
13.3074 -25.5213 8.1232 
14.1999 -6.3251 8.1232 
14.8085 -31.2507 8.1232 
14.9312 26.4998 8.1232 
13.0635 -30.5554 8.1232 
14.8556 -20.0102 8.1232 
13.5543 -17.4347 8.1232 
14.7299 -22.2442 8.1232 
13.8599 -5.9181 8.1232 
14.2469 0.324936 8.1232 
14.6113 6.93648 8.1232 
14.7005 4.00711 8.1232 
14.3113 -13.6757 8.1232 
14.5815 0.343113 8.1232 
13.5673 -19.9568 8.1232 
13.9411 -28.0476 8.1232 
13.7743 -16.1173 8.1232 
14.7138 15.5026 8.1232 
14.6623 15.4376 8.1232 
14.2113 -29.6386 8.1232 
14.3906 1.64828 8.1232 
14.882 -14.6429 8.1232 
14.5188 -4.05597 8.1232 
14.9173 -28.2418 8.1232 
14.3687 -33.0449 8.1232 
14.9256 -3.25759 8.1232 
14.5134 -22.238 8.1232 
14.3873 -17.5156 8.1232 
13.5381 -22.264 8.1232 
14.1766 -25.4659 8.1232 
14.5382 15.3726 8.1232 
13.5253 -31.5315 8.1232 
14.4869 -19.5893 8.1232 
14.9143 -19.5439 8.1232 
14.5392 1.26011 8.1232 
13.0782 -31.6344 8.1232 
14.9521 -22.7915 8.1232 
14.6547 7.56771 8.1232 
14.7197 -13.3611 8.1232 
14.5827 -6.63992 8.1232 
14.3231 -31.9555 8.1232 
14.2204 30.1911 8.1232 
13.506 -6.71251 8.1232 
13.4762 11.9527 8.1232 
13.8398 9.86236 8.1232 
13.7761 28.4179 8.1232 
14.0499 17.4562 8.1232 
13.4607 1.37281 8.1232 
13.3511 31.1715 8.1232 
13.465 -8.0442 8.1232 
13.9526 5.74716 8.1232 
13.332 -19.2925 8.1232 
13.3294 -20.3317 8.1232 
14.3414 13.3308 8.1232 
13.6258 20.6985 8.1232 
13.0191 29.2683 8.1232 
13.3 29.8758 8.1232 
13.6918 13.7533 8.1232 
13.6421 -0.0982819 8.1232 
13.944 12.2367 8.1232 
13.2668 2.77612 8.1232 
14.2223 30.5897 8.1232 
13.0616 -19.8391 8.1232 
13.5592 13.6943 8.1232 
13.2079 20.4475 8.1232 
14.0506 10.3878 8.1232 
14.5455 33.1758 8.1232 
13.0588 -18.1171 8.1232 
13.879 18.0143 8.1232 
13.6568 22.3587 8.1232 
13.3434 6.82484 8.1232 
13.0612 29.8989 8.1232 
13.5561 -4.02301 8.1232 
13.983 2.82358 8.1232 
13.0516 -24.7822 8.1232 
14.5418 27.9673 8.1232 
14.4592 30.0585 8.1232 
13.3387 14.0753 8.1232 
13.3889 -11.1219 8.1232 
13.6688 32.0702 8.1232 
14.007 16.9614 8.1232 
13.4877 -11.6953 8.1232 
14.3103 30.2365 8.1232 
13.2094 -8.45246 8.1232 
13.2429 23.53 8.1232 
13.6498 30.7562 8.1232 
13.5286 -14.1262 8.1232 
13.6679 30.7059 8.1232 
14.4046 23.0284 8.1232 
14.4685 17.6869 8.1232 
14.069 5.48909 8.1232 
13.7631 6.73359 8.1232 
13.6879 16.0002 8.1232 
13.9517 16.5223 8.1232 
13.7015 -0.382314 8.1232 
13.022 24.6934 8.1232 
14.1386 10.2072 8.1232 
13.3718 30.0114 8.1232 
14.3329 26.7933 8.1232 
13.1736 17.6307 8.1232 
13.5746 1.98443 8.1232 
13.1218 30.2252 8.1232 
14.5751 31.8853 8.1232 
13.0795 -10.6467 8.1232 
13.9802 21.6634 8.1232 
13.8859 13.2791 8.1232 
13.1723 23.3356 8.1232 
13.2149 -17.3429 8.1232 
13.26 28.3076 8.1232 
14.0481 13.3078 8.1232 
14.4347 26.0953 8.1232 
13.8863 25.0767 8.1232 
13.3307 -6.61955 8.1232 
13.4985 -14.8787 8.1232 
13.073 -18.7842 8.1232 
13.9144 18.4057 8.1232 
13.75 4.08211 8.1232 
14.2053 13.9227 8.1232 
13.0055 1.00171 8.1232 
13.2483 -16.3532 8.1232 
13.3777 -14.1486 8.1232 
14.0068 6.35106 8.1232 
13.1676 24.484 8.1232 
13.1289 -26.7331 8.1232 
13.2457 -10.361 8.1232 
13.3517 7.94042 8.1232 
13.2984 8.40025 8.1232 
13.5958 24.9487 8.1232 
13.4683 2.40315 8.1232 
13.4705 13.3337 8.1232 
13.8548 8.469 8.1232 
13.1111 28.2019 8.1232 
14.1255 26.8265 8.1232 
13.5094 -6.63899 8.1232 
13.4496 8.18968 8.1232 
13.6098 15.3576 8.1232 
12.9944 8.91612 8.1232 
13.7336 6.03668 8.1232 
14.5641 31.6738 8.1232 
13.1644 -21.7401 8.1232 
13.07 1.98098 8.1232 
13.095 8.49146 8.1232 
14.277 24.744 8.1232 
13.3779 11.3609 8.1232 
13.5432 4.05416 8.1232 
13.6742 -5.44238 8.1232 
14.4457 33.1693 8.1232 
9.73976 33.3065 8.1232 
10.3549 33.3599 8.1232 
6.83755 31.7721 8.1232 
0.79144 32.1207 8.1232 
4.32156 32.8956 8.1232 
12.7535 32.0798 8.1232 
8.75734 32.2865 8.1232 
5.66206 32.9249 8.1232 
-11.1466 31.7688 8.1232 
2.65425 31.9981 8.1232 
4.0991 32.3497 8.1232 
6.94916 31.8511 8.1232 
3.3554 32.3521 8.1232 
7.01686 31.9584 8.1232 
8.79525 33.0806 8.1232 
8.53893 32.262 8.1232 
7.42463 33.094 8.1232 
12.9561 33.1103 8.1232 
10.7918 33.1539 8.1232 
12.7431 33.4313 8.1232 
12.7325 32.1728 8.1232 
8.56634 31.7328 8.1232 
0.64431 32.3798 8.1232 
-9.43371 31.8748 8.1232 
10.4179 31.8411 8.1232 
8.59046 32.7982 8.1232 
6.01162 32.2806 8.1232 
-0.675272 31.9335 8.1232 
5.98786 32.4013 8.1232 
3.10229 32.2753 8.1232 
-6.46943 32.0833 8.1232 
8.23676 32.8859 8.1232 
7.26782 33.1377 8.1232 
9.01596 32.8305 8.1232 
-6.64118 31.8891 8.1232 
12.8638 32.9493 8.1232 
-6.69055 32.1204 8.1232 
11.3461 32.0891 8.1232 
0.873953 32.0241 8.1232 
12.0825 31.7414 8.1232 
7.17987 32.6036 8.1232 
6.20675 31.947 8.1232 
-13.8784 -26.4021 8.1232 
-14.165 -5.57567 8.1232 
-14.8651 16.8128 8.1232 
-14.661 20.8071 8.1232 
-13.5512 -31.5823 8.1232 
-14.644 -15.6443 8.1232 
-14.1405 -26.6435 8.1232 
-14.9548 1.35367 8.1232 
-13.1371 -29.619 8.1232 
-14.1462 -11.1803 8.1232 
-14.7562 19.0364 8.1232 
-14.8564 2.95772 8.1232 
-13.5569 -16.2941 8.1232 
-13.8336 -9.89897 8.1232 
-13.6985 -16.9323 8.1232 
-13.8732 -6.42772 8.1232 
-13.8155 -21.5895 8.1232 
-14.3984 -7.76196 8.1232 
-13.3713 -21.9215 8.1232 
-14.8841 -21.432 8.1232 
-13.6148 -28.0963 8.1232 
-14.033 -19.0822 8.1232 
-13.4294 -21.1394 8.1232 
-14.5209 -25.2668 8.1232 
-14.1649 -6.3401 8.1232 
-14.2215 -5.93278 8.1232 
-14.6021 10.6354 8.1232 
-13.8241 -18.9716 8.1232 
-13.7976 -17.8902 8.1232 
-14.4529 -18.0904 8.1232 
-14.4443 -25.7223 8.1232 
-14.6276 6.24773 8.1232 
-14.6019 5.54597 8.1232 
-14.9149 -0.795086 8.1232 
-13.7192 -27.8077 8.1232 
-14.3739 -25.9196 8.1232 
-14.2391 -25.2347 8.1232 
-14.4673 -16.0749 8.1232 
-14.5261 5.5293 8.1232 
-14.3426 -7.30375 8.1232 
-14.783 -0.273094 8.1232 
-14.0495 -28.6467 8.1232 
-14.0372 -4.01749 8.1232 
-13.9122 -7.81853 8.1232 
-14.7707 19.6337 8.1232 
-14.7994 -20.5224 8.1232 
-13.6543 -26.5515 8.1232 
-13.3014 -26.1681 8.1232 
-14.359 -23.5769 8.1232 
-13.7134 -24.94 8.1232 
-14.9354 3.25418 8.1232 
-14.2907 1.09211 8.1232 
-14.3361 3.36625 8.1232 
-14.5869 -9.31085 8.1232 
-14.6949 -14.1353 8.1232 
-14.6689 20.702 8.1232 
-14.9778 -10.9038 8.1232 
-13.6234 -18.984 8.1232 
-14.3282 4.05182 8.1232 
-14.9387 30.8982 8.1232 
-13.6881 -28.4872 8.1232 
-14.3368 -4.48063 8.1232 
-13.7154 -21.7765 8.1232 
-14.6209 -26.9831 8.1232 
-14.3263 -20.7395 8.1232 
-13.6598 -28.7005 8.1232 
-14.671 -0.522675 8.1232 
-13.5647 -31.3789 8.1232 
-14.9022 18.4216 8.1232 
-14.4239 0.496349 8.1232 
-14.7778 -19.7479 8.1232 
-14.3522 -24.5286 8.1232 
-14.8265 -17.213 8.1232 
-14.6165 10.7786 8.1232 
-14.2206 -23.9505 8.1232 
-14.0208 0.962086 8.1232 
-14.6407 17.4976 8.1232 
-13.8292 -17.5163 8.1232 
-14.1359 -29.4958 8.1232 
-14.978 -2.21664 8.1232 
-14.4024 6.9982 8.1232 
-14.8629 2.63926 8.1232 
-14.1104 -13.8902 8.1232 
-13.8561 -15.3427 8.1232 
-13.3013 -26.4839 8.1232 
-14.151 -14.8552 8.1232 
-14.6851 20.9787 8.1232 
-14.2583 -32.5716 8.1232 
-13.2139 -28.1118 8.1232 
-14.9175 -27.9856 8.1232 
-14.7335 17.3799 8.1232 
-14.4772 6.77625 8.1232 
-14.2998 -15.7768 8.1232 
-14.3738 -1.83089 8.1232 
-13.8896 -29.2634 8.1232 
-13.4005 -18.6616 8.1232 
-14.7824 21.4397 8.1232 
-14.6845 -23.2325 8.1232 
-14.7283 -6.39787 8.1232 
-14.3766 -0.828365 8.1232 
-14.9238 23.9648 8.1232 
-14.2584 5.01837 8.1232 
-13.5416 -17.6302 8.1232 
-14.4016 -5.70641 8.1232 
-14.8106 -15.0012 8.1232 
-13.5086 -28.4627 8.1232 
-13.9064 -4.58009 8.1232 
-14.5586 -14.0444 8.1232 
-13.6677 -22.4424 8.1232 
-14.4305 14.4365 8.1232 
-14.9017 -25.2028 8.1232 
-10.5521 -33.1344 8.1232 
-8.4832 -32.4686 8.1232 
6.24746 -31.8864 8.1232 
2.30286 -31.8434 8.1232 
-9.53337 -32.9291 8.1232 
-7.79163 -32.4955 8.1232 
0.54526 -32.2834 8.1232 
-9.45221 -32.6341 8.1232 
-13.4516 -33.3785 8.1232 
-8.31153 -32.7569 8.1232 
2.32454 -31.9863 8.1232 
-10.0491 -32.2329 8.1232 
-0.117762 -32.0512 8.1232 
-9.17045 -32.0943 8.1232 
-7.30055 -31.7975 8.1232 
-0.763492 -32.5827 8.1232 
3.02969 -31.8053 8.1232 
0.802627 -31.8471 8.1232 
-10.1273 -32.6107 8.1232 
-7.97861 -32.7673 8.1232 
-13.3498 -32.4719 8.1232 
1.47281 -32.4453 8.1232 
-11.2458 -31.8131 8.1232 
-14.3062 -33.5575 8.1232 
-6.13607 -32.522 8.1232 
4.33516 -32.0256 8.1232 
-11.6096 -32.7541 8.1232 
-1.89248 -31.794 8.1232 
-7.9565 -32.8887 8.1232 
-13.2638 -33.1945 8.1232 
-10.4427 -31.6967 8.1232 
0.856914 -32.028 8.1232 
-11.41 -31.7352 8.1232 
-5.34262 -32.1488 8.1232 
-12.0419 -32.7101 8.1232 
-3.56826 -32.561 8.1232 
-3.97119 -32.2354 8.1232 
-4.12513 -32.2415 8.1232 
-10.3566 -33.0189 8.1232 
-8.2618 -32.0744 8.1232 
-4.26405 -32.2369 8.1232 
-0.146243 -32.1483 8.1232 
2.1094 -31.9723 8.1232 
-13.1098 1.21973 8.1232 
-13.5079 11.4105 8.1232 
-13.4934 -5.25387 8.1232 
-13.1711 -3.07401 8.1232 
-13.3468 6.80456 8.1232 
-13.5331 -12.7717 8.1232 
-13.932 24.2665 8.1232 
-13.1499 7.6017 8.1232 
-13.6206 5.26233 8.1232 
-13.2189 0.481505 8.1232 
-13.3331 15.9348 8.1232 
-13.0584 -23.0133 8.1232 
-13.2386 -14.7312 8.1232 
-13.9771 31.064 8.1232 
-13.2585 20.5499 8.1232 
-13.4353 -5.96011 8.1232 
-14.353 15.9274 8.1232 
-14.0024 25.9627 8.1232 
-13.3319 18.7217 8.1232 
-14.3263 20.6082 8.1232 
-13.4129 -0.579148 8.1232 
-13.1058 30.0502 8.1232 
-13.8821 29.9217 8.1232 
-13.1115 26.1401 8.1232 
-13.3256 -8.16769 8.1232 
-13.42 -7.69365 8.1232 
-14.3061 14.094 8.1232 
-14.108 30.4687 8.1232 
-13.6364 -2.88485 8.1232 
-13.7927 -0.720962 8.1232 
-14.0492 17.2428 8.1232 
-14.4836 29.1285 8.1232 
-13.333 -6.69354 8.1232 
-14.2223 31.0286 8.1232 
-14.1374 9.903 8.1232 
-13.908 29.3676 8.1232 
-13.2819 16.0021 8.1232 
-13.8402 30.4112 8.1232 
-13.5549 9.27307 8.1232 
-13.2245 -14.871 8.1232 
-13.4854 13.5701 8.1232 
-13.2428 5.55479 8.1232 
-13.5132 -7.14688 8.1232 
-13.3223 24.213 8.1232 
-13.2093 13.0494 8.1232 
-13.6832 8.43296 8.1232 
-14.6086 31.0453 8.1232 
-13.8371 23.7322 8.1232 
-13.1076 23.5825 8.1232 
-13.2751 31.1725 8.1232 
-13.2705 21.8561 8.1232 
-13.2408 2.88123 8.1232 
-13.595 15.7638 8.1232 
-14.192 10.6335 8.1232 
-13.2099 -6.0665 8.1232 
-13.619 6.17829 8.1232 
-13.0146 22.1353 8.1232 
-13.5636 3.82565 8.1232 
-13.7755 23.9964 8.1232 
-14.4755 17.1649 8.1232 
-13.2606 29.7591 8.1232 
-13.5482 4.69246 8.1232 
-13.0628 -2.75179 8.1232 
-14.1713 12.7348 8.1232 
-13.5454 -8.65117 8.1232 
-13.5367 -9.25237 8.1232 
-13.4663 -12.8402 8.1232 
-13.842 22.9843 8.1232 
-13.0868 12.9795 8.1232 
-13.7058 1.54748 8.1232 
-13.3448 -7.4891 8.1232 
-14.841 29.925 8.1232 
-13.2863 27.8491 8.1232 
-13.6677 22.5815 8.1232 
-13.9285 9.16143 8.1232 
-13.1457 2.90274 8.1232 
-13.9997 17.2987 8.1232 
-13.7617 5.02965 8.1232 
-13.7988 21.331 8.1232 
-14.4606 23.7938 8.1232 
-13.2699 23.2008 8.1232 
-14.4784 21.0043 8.1232 
-13.7442 29.0033 8.1232 
-14.2657 26.6404 8.1232 
-13.0037 12.2921 8.1232 
-13.4682 20.7016 8.1232 
-14.8387 28.8387 8.1232 
-13.9705 17.7886 8.1232 
-13.325 22.3982 8.1232 
-13.6489 19.2692 8.1232 
-13.3406 8.52507 8.1232 
-14.0431 14.0367 8.1232 
-13.1584 -2.85933 8.1232 
-13.8263 10.4487 8.1232 
-14.3194 20.5265 8.1232 
-14.3468 24.1372 8.1232 
-14.1912 18.1534 8.1232 
-14.3355 31.3587 8.1232 
-13.6666 22.7586 8.1232 
-14.1661 26.9427 8.1232 
-13.7918 -3.33513 8.1232 
-13.9229 20.8492 8.1232 
-13.1575 23.3638 8.1232 
-13.3003 20.5367 8.1232 
-7.66187 33.4412 8.1232 
11.0228 33.6071 8.1232 
-4.83047 32.622 8.1232 
-1.61817 33.5731 8.1232 
5.28483 33.5103 8.1232 
10.5901 33.6066 8.1232 
-12.2184 33.1067 8.1232 
-10.3321 33.577 8.1232 
1.84267 33.3804 8.1232 
0.47551 33.1089 8.1232 
9.44949 33.3572 8.1232 
-1.87393 32.9958 8.1232 
-12.4332 33.2968 8.1232 
-3.13489 32.5644 8.1232 
4.66268 33.0614 8.1232 
-7.24468 33.4606 8.1232 
4.92327 33.3994 8.1232 
-10.4302 31.9729 8.1232 
-7.79755 32.4283 8.1232 
3.27257 32.9369 8.1232 
-4.69094 33.4726 8.1232 
-9.88526 33.5172 8.1232 
6.8562 33.6599 8.1232 
-8.58499 33.1554 8.1232 
-11.849 32.3492 8.1232 
-11.3522 31.8469 8.1232 
2.40322 33.4757 8.1232 
4.71202 33.1409 8.1232 
-1.4027 33.4132 8.1232 
-1.03189 32.6954 8.1232 
-0.368287 33.018 8.1232 
-10.8304 33.5147 8.1232 
9.91918 33.577 8.1232 
9.75559 33.3897 8.1232 
0.687799 32.7171 8.1232 
-5.53746 33.6583 8.1232 
-3.19272 32.8322 8.1232 
-5.73792 33.4702 8.1232 
5.40512 33.2125 8.1232 
-8.72445 32.347 8.1232 
-11.4718 32.2904 8.1232 
-12.8698 31.8246 8.1232 
2.1941 33.5779 8.1232 
-9.36134 33.2176 8.1232 
-3.95017 33.3074 8.1232 
5.89278 33.644 8.1232 
6.90972 33.6818 8.1232 
-10.2459 33.5206 8.1232 
-0.450604 33.4499 8.1232 
9.55088 33.5895 8.1232 
-7.01568 33.433 8.1232 
-6.48569 32.7613 8.1232 
-4.96003 33.6117 8.1232 
8.73449 33.4984 8.1232 
-8.6199 33.5731 8.1232 
-7.21605 33.003 8.1232 
-2.36423 33.5147 8.1232 
-11.4206 33.2457 8.1232 
-2.41936 32.758 8.1232 
-8.40012 32.9335 8.1232 
-10.2013 32.3182 8.1232 
1.91141 33.2949 8.1232 
-4.48874 33.2467 8.1232 
9.01437 33.3958 8.1232 
-6.11685 33.33 8.1232 
-11.7402 31.8439 8.1232 
-2.19723 32.8621 8.1232 
-3.93789 33.3194 8.1232 
-6.42603 32.632 8.1232 
-4.30646 33.1344 8.1232 
-12.082 33.3987 8.1232 
-12.4395 33.3665 8.1232 
-7.62134 33.5267 8.1232 
-5.36422 33.1435 8.1232 
9.82434 33.3489 8.1232 
-6.48445 33.6375 8.1232 
-2.39387 32.6759 8.1232 
-1.48648 33.1031 8.1232 
-7.67991 32.3489 8.1232 
-7.95472 32.3483 8.1232 
-12.8432 33.219 8.1232 
-11.3572 33.2007 8.1232 
-13.3841 33.637 8.1232 
-0.665741 32.7752 8.1232 
-5.84222 32.2533 8.1232 
-6.54684 33.1904 8.1232 
-1.0226 33.273 8.1232 
-8.00655 32.6314 8.1232 
0.323659 32.7318 8.1232 
-0.701987 33.5189 8.1232 
-0.575367 33.2227 8.1232 
-13.0798 33.1652 8.1232 
-13.0526 32.4254 8.1232 
-4.55617 33.3294 8.1232 
4.40712 33.2597 8.1232 
-13.2618 32.0568 8.1232 
-9.78978 32.4069 8.1232 
2.55946 33.2331 8.1232 
-2.94042 33.1258 8.1232 
-9.03802 33.3874 8.1232 
-13.0722 -23.3062 8.1232 
-13.9375 26.8668 8.1232 
-13.2929 27.9128 8.1232 
-14.3295 28.7772 8.1232 
-13.7483 -4.58326 8.1232 
-13.1986 5.99165 8.1232 
-14.105 30.9479 8.1232 
-13.6191 11.1018 8.1232 
-13.3586 24.0797 8.1232 
-14.1709 24.8411 8.1232 
-13.1789 17.4945 8.1232 
-13.4658 25.9741 8.1232 
-13.8736 23.7671 8.1232 
-13.6337 26.7703 8.1232 
-14.531 27.5586 8.1232 
-13.008 -15.4178 8.1232 
-13.9506 27.855 8.1232 
-14.1062 19.5033 8.1232 
-13.0193 15.4147 8.1232 
-13.2446 6.15291 8.1232 
-13.9763 9.75066 8.1232 
-13.8651 24.6646 8.1232 
-13.7547 13.5791 8.1232 
-13.6701 7.96119 8.1232 
-14.1934 14.1127 8.1232 
-13.889 30.0138 8.1232 
-13.0018 -28.3616 8.1232 
-13.2057 28.0597 8.1232 
-13.0706 -5.24909 8.1232 
-14.8536 30.634 8.1232 
-13.3267 -9.80721 8.1232 
-13.9754 21.3447 8.1232 
-13.8782 -2.21763 8.1232 
-14.4347 19.983 8.1232 
-13.0936 17.0314 8.1232 
-13.0231 -15.6194 8.1232 
-14.2616 28.2122 8.1232 
-14.5337 25.6427 8.1232 
-13.4343 -3.44939 8.1232 
-13.0548 29.6555 8.1232 
-13.2805 17.5529 8.1232 
-13.2526 12.2691 8.1232 
-13.5631 21.0156 8.1232 
-13.8178 27.9905 8.1232 
-14.1712 14.5802 8.1232 
-13.0467 2.86659 8.1232 
-12.9969 14.2801 8.1232 
-14.4324 20.9414 8.1232 
-13.7521 11.4252 8.1232 
-13.064 3.78261 8.1232 
-13.4352 -9.50429 8.1232 
-14.1997 16.1137 8.1232 
-13.4568 18.6157 8.1232 
-14.4426 19.908 8.1232 
-14.0205 5.25072 8.1232 
-13.5383 22.9442 8.1232 
-13.7132 20.9844 8.1232 
-13.6832 6.26575 8.1232 
-14.3458 20.5313 8.1232 
-14.1315 20.6633 8.1232 
-13.2869 -8.95462 8.1232 
-13.4333 19.7361 8.1232 
-13.0801 15.1949 8.1232 
-13.1062 -9.94842 8.1232 
-13.813 13.4888 8.1232 
-13.9113 20.0498 8.1232 
-13.9289 19.1351 8.1232 
-14.6817 23.5195 8.1232 
-13.4096 -1.57344 8.1232 
-13.7576 10.2861 8.1232 
-13.2527 -15.4257 8.1232 
-14.6237 28.0314 8.1232 
-14.4268 23.3407 8.1232 
-13.008 -3.75405 8.1232 
-13.0341 -20.9525 8.1232 
-13.4244 6.8202 8.1232 
-13.3479 9.47497 8.1232 
-14.2778 32.7996 8.1232 
-13.4193 15.568 8.1232 
-14.0334 27.6331 8.1232 
-13.8023 21.4073 8.1232 
-13.0111 -5.79928 8.1232 
-13.3671 -18.618 8.1232 
-13.0461 11.3531 8.1232 
-13.7399 8.41325 8.1232 
-13.0567 28.9605 8.1232 
-13.3584 -0.215529 8.1232 
-14.0042 24.3511 8.1232 
-13.2399 18.7512 8.1232 
-13.1428 -2.38388 8.1232 
-13.2787 -6.20934 8.1232 
-13.1252 22.4862 8.1232 
-13.0838 16.5944 8.1232 
-14.4933 30.6415 8.1232 
-13.0416 23.0192 8.1232 
-13.5864 -5.98066 8.1232 
-13.4135 15.9991 8.1232 
-14.4079 32.2049 8.1232 
-13.2233 30.9172 8.1232 
-13.7761 27.3795 8.1232 
-13.7358 -3.20667 8.1232 
-14.4577 16.4088 8.1232 
-14.4765 27.206 8.1232 
-13.9365 19.7614 8.1232 
-13.3877 18.3875 8.1232 
-3.94899 -32.0277 8.1232 
-11.0209 -32.2829 8.1232 
1.1014 -32.3181 8.1232 
1.12487 -32.2904 8.1232 
-13.3812 -32.0997 8.1232 
-10.9483 -32.9898 8.1232 
0.119509 -32.2644 8.1232 
-1.62963 -31.9303 8.1232 
-10.3667 -31.877 8.1232 
-1.44752 -32.2301 8.1232 
-12.404 -32.3049 8.1232 
-12.3362 -31.7166 8.1232 
-7.25688 -32.6957 8.1232 
-3.07246 -32.3698 8.1232 
-11.2105 -32.1948 8.1232 
-10.1712 -33.2678 8.1232 
-10.88 -32.2472 8.1232 
-8.21209 -32.0159 8.1232 
2.31084 -32.2808 8.1232 
3.06191 -32.2029 8.1232 
-12.5349 -32.3862 8.1232 
8.72794 -31.7077 8.1232 
-2.04291 -31.9105 8.1232 
-3.18965 -32.1226 8.1232 
-12.7805 -31.9265 8.1232 
-3.18543 -32.0799 8.1232 
-8.76133 -32.9338 8.1232 
-6.53514 -32.5269 8.1232 
-9.45243 -32.8592 8.1232 
-5.19252 -31.8854 8.1232 
1.32328 -31.9098 8.1232 
-9.3964 -31.8993 8.1232 
-2.70692 -32.146 8.1232 
-2.02866 -31.7941 8.1232 
-10.2125 -32.0781 8.1232 
-13.389 -32.3896 8.1232 
-7.58947 -31.802 8.1232 
-0.239906 -32.588 8.1232 
-5.5087 -31.7751 8.1232 
-4.48912 -32.2277 8.1232 
-6.51165 -33.0095 8.1232 
-12.6969 -32.9905 8.1232 
-4.60048 -31.8602 8.1232 
-14.1035 -12.3062 8.1232 
-14.1959 -22.2153 8.1232 
-14.4052 -29.2587 8.1232 
-14.4665 11.011 8.1232 
-14.2299 2.91697 8.1232 
-14.0485 -7.27693 8.1232 
-14.4264 10.3055 8.1232 
-14.0249 -3.34227 8.1232 
-14.1031 -6.45875 8.1232 
-14.0554 -5.28292 8.1232 
-14.3487 -25.0616 8.1232 
-14.5845 -12.0565 8.1232 
-14.9599 12.9665 8.1232 
-14.3742 5.98437 8.1232 
-14.0004 -26.5885 8.1232 
-14.4656 12.9059 8.1232 
-14.6399 10.0794 8.1232 
-14.6719 -23.2537 8.1232 
-14.1142 3.79141 8.1232 
-14.9715 2.96625 8.1232 
-14.8085 -19.2179 8.1232 
-14.5413 -20.4793 8.1232 
-14.692 6.62881 8.1232 
-13.6567 -18.7006 8.1232 
-14.9095 -11.2866 8.1232 
-13.4607 -30.2457 8.1232 
-14.0115 -10.5684 8.1232 
-13.465 -27.4226 8.1232 
-14.3069 -19.3827 8.1232 
-14.5408 -27.1408 8.1232 
-14.199 6.79353 8.1232 
-14.3064 5.44457 8.1232 
-14.5667 -18.6316 8.1232 
-14.8206 0.392502 8.1232 
-14.8288 -14.3138 8.1232 
-14.1053 -22.5743 8.1232 
-14.2836 -18.5659 8.1232 
-14.4894 8.68822 8.1232 
-14.8881 -15.58 8.1232 
-14.9595 -28.1792 8.1232 
-13.3155 -22.4734 8.1232 
-13.8562 -9.59124 8.1232 
-14.5996 13.432 8.1232 
-14.024 -4.71075 8.1232 
-14.1797 -7.95062 8.1232 
-14.2119 -18.4671 8.1232 
-13.3144 -29.0385 8.1232 
-13.5058 -18.1405 8.1232 
-14.3126 -20.0755 8.1232 
-13.6921 -14.4519 8.1232 
-14.3739 -13.326 8.1232 
-13.7645 -32.3287 8.1232 
-13.6397 -12.4055 8.1232 
-14.4125 -3.56818 8.1232 
-14.5939 -4.55864 8.1232 
-14.9625 8.23251 8.1232 
-13.7844 -7.29245 8.1232 
-14.7164 21.8563 8.1232 
-13.3527 -21.755 8.1232 
-14.0273 -2.66343 8.1232 
-14.6294 3.22472 8.1232 
-14.8934 28.4883 8.1232 
-14.7299 -25.7582 8.1232 
-14.5431 10.1009 8.1232 
-13.274 -23.2067 8.1232 
-14.7433 -11.3183 8.1232 
-14.8307 -3.00835 8.1232 
-14.0399 -8.83215 8.1232 
-14.6681 -28.6331 8.1232 
-14.8151 -14.1057 8.1232 
-14.195 -22.4285 8.1232 
-14.425 -5.56391 8.1232 
-14.2599 -17.8785 8.1232 
-14.0159 -2.03089 8.1232 
-13.4378 -28.8845 8.1232 
-14.4085 12.0105 8.1232 
-14.9274 16.5615 8.1232 
-14.6612 19.6511 8.1232 
-14.3701 -25.1056 8.1232 
-13.9312 -21.6822 8.1232 
-14.7439 -12.6214 8.1232 
-13.6537 -26.6303 8.1232 
-13.9204 -13.6374 8.1232 
-14.5616 -30.7806 8.1232 
-14.9683 -19.9802 8.1232 
-14.9345 7.24961 8.1232 
-14.3558 2.88357 8.1232 
-14.6762 -8.53648 8.1232 
-14.8615 8.88268 8.1232 
-14.5686 -29.1017 8.1232 
-14.9225 -7.39468 8.1232 
-14.8779 21.8856 8.1232 
-14.5149 -30.3721 8.1232 
-14.8039 5.08272 8.1232 
-14.5522 18.3496 8.1232 
-13.9645 -20.3397 8.1232 
-14.9556 -11.0585 8.1232 
-14.7884 17.2971 8.1232 
-14.6776 -31.1915 8.1232 
-14.722 -24.9926 8.1232 
-13.2631 -29.7243 8.1232 
-13.4651 -31.1256 8.1232 
-14.0325 -15.1587 8.1232 
-14.9375 15.4778 8.1232 
-13.7445 -31.4516 8.1232 
-13.8187 -16.1901 8.1232 
-14.4361 2.96784 8.1232 
-13.5446 -13.6689 8.1232 
-14.7825 23.7545 8.1232 
-14.6368 -26.3816 8.1232 
-13.9366 -2.5916 8.1232 
-14.3356 9.84027 8.1232 
8.95951 32.4051 8.1232 
7.35869 33.0746 8.1232 
-4.92791 31.7151 8.1232 
10.3125 32.0214 8.1232 
12.3514 32.7912 8.1232 
-10.6212 31.7453 8.1232 
4.54501 32.296 8.1232 
-5.36792 32.0364 8.1232 
10.4551 32.7143 8.1232 
12.9256 32.9698 8.1232 
6.94674 32.2343 8.1232 
1.91932 32.1125 8.1232 
10.4429 32.9172 8.1232 
7.98465 32.4766 8.1232 
-6.86144 31.8252 8.1232 
12.4977 33.323 8.1232 
2.41354 31.71 8.1232 
8.6685 32.0941 8.1232 
6.8893 32.0655 8.1232 
8.70785 32.6413 8.1232 
11.2662 32.7561 8.1232 
13.2322 32.4157 8.1232 
-0.375443 31.7919 8.1232 
3.89013 32.794 8.1232 
11.326 31.8784 8.1232 
10.6434 33.3314 8.1232 
1.49376 32.3459 8.1232 
11.4717 31.9734 8.1232 
9.6536 32.6203 8.1232 
4.56398 32.03 8.1232 
10.1721 32.4639 8.1232 
4.05664 32.2765 8.1232 
12.3831 32.9311 8.1232 
6.24594 31.8793 8.1232 
13.1387 32.0704 8.1232 
11.7277 32.2314 8.1232 
1.76625 32.434 8.1232 
-2.50974 32.1411 8.1232 
-4.04014 31.9672 8.1232 
0.751993 31.8166 8.1232 
2.9414 31.9303 8.1232 
-7.36624 31.9695 8.1232 
10.2843 33.2273 8.1232 
13.7291 11.3297 8.1232 
13.4584 8.46118 8.1232 
13.9901 25.7336 8.1232 
13.3703 4.53605 8.1232 
13.7013 5.36354 8.1232 
13.1197 7.80973 8.1232 
13.4668 30.6297 8.1232 
13.2766 26.5818 8.1232 
13.3311 19.2042 8.1232 
13.1984 -3.72055 8.1232 
13.847 21.0613 8.1232 
13.8812 11.7418 8.1232 
14.3431 27.2291 8.1232 
13.8602 12.5964 8.1232 
13.693 24.2908 8.1232 
13.4196 -17.111 8.1232 
13.5378 13.2373 8.1232 
13.581 29.3808 8.1232 
13.2731 -2.56169 8.1232 
14.0486 9.22965 8.1232 
13.5472 29.6182 8.1232 
14.2363 17.0454 8.1232 
13.3579 26.0717 8.1232 
14.3506 21.4296 8.1232 
13.3143 17.0267 8.1232 
14.3193 22.7482 8.1232 
13.0653 -26.0009 8.1232 
14.2815 24.3493 8.1232 
13.038 -14.7643 8.1232 
13.2393 -1.88132 8.1232 
13.4491 -5.51315 8.1232 
13.5142 7.33723 8.1232 
13.5425 23.7337 8.1232 
13.658 9.87372 8.1232 
13.2498 22.6756 8.1232 
14.2403 14.7154 8.1232 
14.8568 29.6288 8.1232 
13.048 31.2694 8.1232 
13.153 -9.35175 8.1232 
14.0829 27.838 8.1232 
13.7514 23.4617 8.1232 
14.4109 29.203 8.1232 
13.3017 -19.5987 8.1232 
13.4372 -2.43166 8.1232 
13.8005 8.49607 8.1232 
13.6085 26.4532 8.1232 
13.1029 -21.2055 8.1232 
13.5182 2.22328 8.1232 
13.3911 11.8498 8.1232 
14.15 24.7245 8.1232 
14.28 31.9545 8.1232 
13.4363 -12.8289 8.1232 
13.8732 5.6848 8.1232 
13.009 18.9574 8.1232 
13.486 6.36824 8.1232 
14.4623 24.9139 8.1232 
14.4313 17.385 8.1232 
13.8973 30.6892 8.1232 
13.4797 14.9498 8.1232 
13.5152 11.4567 8.1232 
13.3854 0.0308495 8.1232 
14.21 31.0963 8.1232 
13.1961 -5.33957 8.1232 
14.3595 29.9812 8.1232 
13.0003 10.5658 8.1232 
14.5494 29.4975 8.1232 
13.3261 0.83268 8.1232 
13.448 21.2849 8.1232 
13.2419 21.2965 8.1232 
14.0985 21.8793 8.1232 
13.1408 17.2033 8.1232 
13.7565 30.9453 8.1232 
13.5241 29.0904 8.1232 
14.2607 30.2689 8.1232 
14.3751 18.343 8.1232 
13.4717 3.596 8.1232 
13.7469 -6.51728 8.1232 
13.1317 -23.9317 8.1232 
14.7421 30.3189 8.1232 
14.3889 17.5044 8.1232 
13.1797 8.18926 8.1232 
13.6927 10.7254 8.1232 
13.2679 18.3851 8.1232 
13.8247 28.5812 8.1232 
13.1427 7.59487 8.1232 
13.1616 -20.5937 8.1232 
13.4135 -15.9629 8.1232 
13.1093 -2.96677 8.1232 
14.2436 22.0895 8.1232 
13.3934 25.461 8.1232 
13.2081 -10.1071 8.1232 
14.105 24.8882 8.1232 
13.9621 30.6071 8.1232 
13.1391 -18.1559 8.1232 
13.4373 2.22578 8.1232 
13.0615 -9.42801 8.1232 
14.3026 31.493 8.1232 
13.2484 5.06543 8.1232 
13.1992 -23.2111 8.1232 
13.8238 -1.71967 8.1232 
13.1589 -6.7337 8.1232 
13.5194 21.3665 8.1232 
13.207 -10.0618 8.1232 
14.3259 15.2952 8.1232 
14.3276 -7.71213 8.1232 
14.131 1.45519 8.1232 
14.1607 -9.08962 8.1232 
14.4549 -17.8133 8.1232 
14.957 -17.8262 8.1232 
14.6934 -9.65767 8.1232 
14.644 20.7724 8.1232 
14.1548 -14.1876 8.1232 
13.9287 -13.0989 8.1232 
13.9569 -0.655804 8.1232 
14.6747 -5.47268 8.1232 
14.4467 -0.962538 8.1232 
14.8501 10.0397 8.1232 
13.5627 -17.0822 8.1232 
14.6996 13.7532 8.1232 
13.1931 -30.2932 8.1232 
13.2976 -26.9793 8.1232 
14.6593 -26.2383 8.1232 
13.3876 -19.4597 8.1232 
13.7314 -13.3444 8.1232 
14.2232 -21.6408 8.1232 
14.102 -14.8702 8.1232 
14.946 -18.3901 8.1232 
13.9321 -24.1518 8.1232 
14.3514 -4.11462 8.1232 
13.7616 -26.8868 8.1232 
13.5859 -15.6947 8.1232 
14.6161 -18.1863 8.1232 
14.3064 6.09553 8.1232 
14.3201 10.1753 8.1232 
14.2556 -2.3484 8.1232 
14.7075 -6.02441 8.1232 
13.7089 -25.4828 8.1232 
13.4181 -18.6446 8.1232 
14.939 -25.2122 8.1232 
14.7435 0.423777 8.1232 
14.304 -6.37245 8.1232 
13.7161 -8.81698 8.1232 
14.7687 24.2681 8.1232 
14.885 -18.1716 8.1232 
13.9175 -13.9929 8.1232 
13.8119 -16.9347 8.1232 
14.2288 -28.5781 8.1232 
14.0059 -13.3765 8.1232 
14.5328 9.5407 8.1232 
14.5982 -4.87731 8.1232 
14.6491 -4.82355 8.1232 
14.7736 21.382 8.1232 
14.598 6.39931 8.1232 
14.9183 -4.53084 8.1232 
14.3988 -29.2656 8.1232 
14.2721 -30.7705 8.1232 
14.5782 3.78868 8.1232 
14.8103 3.22906 8.1232 
13.3773 -28.908 8.1232 
14.1763 -4.19072 8.1232 
14.7336 9.81717 8.1232 
14.7947 -11.5303 8.1232 
14.2369 -17.6679 8.1232 
14.1562 -22.0287 8.1232 
14.0231 -9.3492 8.1232 
13.3335 -30.5909 8.1232 
14.8642 -17.5503 8.1232 
14.0018 0.558113 8.1232 
14.5287 -10.2565 8.1232 
14.5576 5.52626 8.1232 
14.7745 -25.8031 8.1232 
13.9744 -8.31984 8.1232 
14.1488 -18.3327 8.1232 
14.1391 -17.4206 8.1232 
14.5306 -9.55507 8.1232 
14.9315 -14.957 8.1232 
14.2831 4.83359 8.1232 
13.4731 -19.569 8.1232 
14.3551 8.54148 8.1232 
14.5664 -10.9862 8.1232 
14.267 -20.7905 8.1232 
14.5695 -9.43637 8.1232 
14.0181 -16.2513 8.1232 
13.8951 -28.3587 8.1232 
14.6948 -10.9205 8.1232 
13.1418 -31.3689 8.1232 
14.291 -17.8041 8.1232 
14.7492 8.39476 8.1232 
14.1237 5.11497 8.1232 
14.1044 2.71587 8.1232 
14.1445 -28.9844 8.1232 
14.5321 -13.9586 8.1232 
14.2123 5.28466 8.1232 
14.3858 -8.14967 8.1232 
14.6206 -24.8187 8.1232 
14.7996 -17.7938 8.1232 
14.38 -15.3427 8.1232 
14.4206 -27.6878 8.1232 
13.3217 -22.3579 8.1232 
14.8212 -1.96676 8.1232 
14.8423 22.3071 8.1232 
14.7351 -31.3034 8.1232 
14.4293 -7.72143 8.1232 
14.7088 -8.90093 8.1232 
14.5623 -5.08192 8.1232 
14.6237 4.07622 8.1232 
13.2629 -23.4292 8.1232 
14.4297 -9.31481 8.1232 
14.2987 3.3743 8.1232 
13.8978 -10.8031 8.1232 
14.3205 -33.0102 8.1232 
13.9091 -31.5599 8.1232 
13.7154 -16.3747 8.1232 
14.5337 -4.39168 8.1232 
14.2547 -30.8566 8.1232 
13.1168 -27.9847 8.1232 
8.102 -32.6064 8.1232 
-4.2417 -33.2553 8.1232 
-1.06041 -33.6719 8.1232 
11.7697 -32.6301 8.1232 
4.05056 -32.9235 8.1232 
-5.79205 -33.5952 8.1232 
-7.62121 -33.3604 8.1232 
12.2869 -32.7961 8.1232 
3.67979 -33.4554 8.1232 
9.02645 -32.4819 8.1232 
3.89871 -32.7207 8.1232 
7.98993 -32.8928 8.1232 
4.72688 -33.145 8.1232 
-8.92478 -33.2629 8.1232 
3.19576 -33.6562 8.1232 
8.11039 -32.3038 8.1232 
7.37774 -32.4674 8.1232 
11.9178 -32.5813 8.1232 
12.6046 -31.9106 8.1232 
12.3941 -32.2638 8.1232 
6.80529 -33.2309 8.1232 
9.431 -32.2675 8.1232 
8.59619 -32.485 8.1232 
2.975 -33.6215 8.1232 
11.8873 -32.1391 8.1232 
3.82353 -32.9858 8.1232 
4.59952 -32.453 8.1232 
-9.55983 -33.6943 8.1232 
-4.34517 -33.5188 8.1232 
9.44531 -33.468 8.1232 
-4.80306 -33.6283 8.1232 
5.98493 -32.6908 8.1232 
10.4527 -31.9404 8.1232 
13.2442 -32.5934 8.1232 
-1.52806 -32.857 8.1232 
-11.3424 -33.5829 8.1232 
5.15487 -33.1353 8.1232 
10.0017 -32.3215 8.1232 
7.96222 -33.5245 8.1232 
11.7728 -32.1183 8.1232 
0.125679 -32.7643 8.1232 
10.5612 -32.717 8.1232 
-6.87382 -33.5017 8.1232 
-1.32718 -32.8361 8.1232 
-12.6433 -33.5496 8.1232 
8.7136 -32.6127 8.1232 
7.00462 -32.8782 8.1232 
-9.62959 -33.4446 8.1232 
-2.77963 -33.2795 8.1232 
-12.9922 -21.4103 5.62451 
-12.9922 8.30546 7.00472 
-12.9922 24.2894 5.57199 
-12.9922 19.0384 6.772 
-12.9922 11.8536 5.96592 
-12.9922 -11.1551 5.49448 
-12.9922 21.8548 6.40507 
-12.9922 29.1782 7.38916 
-12.9922 7.04095 6.39491 
-12.9922 10.3844 6.15689 
-12.9922 5.86615 6.9073 
-12.9922 25.7597 7.25065 
-12.9922 22.344 5.67521 
-12.9922 20.5894 7.05866 
-12.9922 10.6397 6.21603 
-12.9922 -8.32617 6.21205 
-12.9922 13.0155 6.14223 
-12.9922 27.631 5.38614 
-12.9922 18.7531 6.8193 
-12.9922 19.517 6.24147 
-12.9922 -13.9111 5.45666 
-12.9922 26.9358 6.24445 
-12.9922 -14.2009 5.65324 
-12.9922 -11.3116 6.18138 
-12.9922 -23.9509 5.60539 
-12.9922 18.1585 7.17218 
-12.9922 31.1 6.95772 
-12.9922 -6.20227 6.261 
-12.9922 -5.18546 5.53219 
-12.9922 -4.83065 5.7081 
-12.9922 22.6907 6.76944 
-12.9922 28.4759 7.57716 
-12.9922 -1.97476 6.47353 
-12.9922 26.0862 6.51021 
-12.9922 16.6977 6.31467 
-12.9922 16.325 6.15541 
-12.9922 2.82122 6.20757 
-12.9922 9.17491 6.59345 
-12.9922 25.9184 6.8735 
-12.9922 28.6446 6.35972 
-12.9922 26.3323 6.47258 
-12.9922 8.53579 6.65966 
-12.9922 26.8623 5.57834 
-12.9922 27.684 5.7162 
-12.9922 30.3698 7.72319 
-12.9922 31.1054 7.3822 
-12.9922 17.1022 6.38728 
-12.9922 9.46169 6.55806 
-12.9922 28.642 6.732 
-12.9922 27.9465 7.68131 
-12.9922 10.3587 6.25229 
-12.9922 9.9037 7.08609 
-12.9922 -10.6319 6.02856 
-12.9922 26.6535 6.61864 
-12.9922 30.534 5.52003 
-12.9922 -0.709467 6.00363 
-12.9922 31.2807 7.80783 
-12.9922 30.5406 6.72376 
-12.9922 2.84578 5.78213 
-12.9922 26.5871 7.80983 
-12.9922 19.3262 6.30215 
-12.9922 -11.4242 5.4576 
-12.9922 5.0725 5.57509 
-12.9922 11.9872 5.54803 
-12.9922 2.03984 5.97832 
-12.9922 1.26669 5.76878 
-12.9922 -0.631212 6.66547 
-12.9922 9.49911 6.78675 
-12.9922 19.2695 5.41635 
-12.9922 5.96693 6.69479 
