ply
format ascii 1.0
comment Author: CloudCompare (TELECOM PARISTECH/EDF R&D)
obj_info Generated by CloudCompare!
element vertex 1381
property float x
property float y
property float z
property uchar red
property uchar green
property uchar blue
end_header
-9.6974 -3.25297 -7.9387 255 0 0 
-9.6949 -4.35996 -10.4237 255 0 0 
-9.6979 -2.68624 -6.82198 255 0 0 
-9.69504 -7.2687 -15.5991 255 0 0 
-9.69571 -7.56936 -15.9723 255 0 0 
-9.69644 -6.01364 -13.0492 255 0 0 
-9.69815 -3.84008 -8.79265 255 0 0 
-9.69942 -8.19705 -16.3698 255 0 0 
-9.69864 -7.35265 -14.9918 255 0 0 
-9.6977 -7.75154 -15.8638 255 0 0 
-9.56505 -6.9879 -14.1921 255 0 0 
-9.55313 -8.40341 -16.7241 255 0 0 
-9.65509 -5.38244 -11.3215 255 0 0 
-9.59965 -3.43853 -7.84324 255 0 0 
-9.43766 -4.32206 -9.42136 255 0 0 
-9.38004 -7.86043 -15.7502 255 0 0 
-9.48073 -4.60892 -9.93515 255 0 0 
-9.34866 -8.51314 -16.9174 255 0 0 
-9.29035 -4.35441 -9.47728 255 0 0 
-9.25919 -1.11279 -3.67839 255 0 0 
-9.32051 -3.67689 -8.26575 255 0 0 
-9.55506 -0.620274 -2.80124 255 0 0 
-9.56551 -1.62569 -4.59983 255 0 0 
-9.2431 -4.16293 -9.13416 255 0 0 
-9.58836 -0.431466 -2.46394 255 0 0 
-9.35406 -1.30902 -4.03062 255 0 0 
-9.39486 3.98057 5.43087 255 0 0 
-9.24258 1.38746 0.794258 255 0 0 
-9.26782 0.883863 -0.106912 255 0 0 
-9.40565 2.1361 2.13132 255 0 0 
-9.65947 8.50976 13.5293 255 0 0 
-9.54994 4.48941 6.33908 255 0 0 
-9.42902 2.09529 2.05802 255 0 0 
-9.58283 1.66057 1.27837 255 0 0 
-9.21114 5.71462 8.53537 255 0 0 
-9.26262 4.02123 5.50541 255 0 0 
-9.37179 6.92385 10.6963 255 0 0 
-9.26004 8.93734 14.2997 255 0 0 
-9.34343 5.39623 7.96398 255 0 0 
-9.17679 4.15944 5.75384 255 0 0 
-9.50791 7.04874 10.9178 255 0 0 
-9.66806 9.06816 14.5281 255 0 0 
-9.30873 6.71856 10.3299 255 0 0 
-9.46457 7.66299 12.0172 255 0 0 
-9.47382 6.89341 10.6404 255 0 0 
-9.22116 6.19313 9.39121 255 0 0 
-9.46818 6.74333 10.372 255 0 0 
-9.35082 6.36362 9.69441 255 0 0 
-9.39982 8.41879 13.3702 255 0 0 
-9.48427 8.86744 14.1716 255 0 0 
-9.56774 0.0782399 -1.55193 255 0 0 
-9.26137 1.93549 1.77435 255 0 0 
-9.66046 5.6905 8.48616 255 0 0 
-9.68373 1.83194 1.58361 255 0 0 
-9.22235 1.28499 0.611216 255 0 0 
-9.65918 1.79689 1.52123 255 0 0 
-9.61515 5.2495 7.69788 255 0 0 
-9.63955 3.53971 4.63908 255 0 0 
-9.32294 -3.3585 -7.69627 255 0 0 
-9.53145 -1.23306 -3.89705 255 0 0 
-9.29535 -0.818648 -3.1527 255 0 0 
-9.44304 -0.719522 -2.97731 255 0 0 
-9.14082 -4.13779 -9.08785 255 0 0 
-9.2611 -6.7121 -13.6943 255 0 0 
-9.5422 -0.968547 -3.42405 255 0 0 
-9.40134 -7.12739 -14.4392 255 0 0 
-9.44802 -7.61501 -15.3122 255 0 0 
-9.50645 -5.32514 -11.2168 255 0 0 
-9.6457 -0.864908 -3.24002 255 0 0 
-9.5971 -4.90638 -10.469 255 0 0 
-9.5829 -6.06354 -12.5388 255 0 0 
-9.69531 -7.2454 -14.6547 255 0 0 
-9.60023 -5.26193 -11.1051 255 0 0 
-9.59986 9.7624 15.7225 255 0 0 
-9.53046 10.2902 15.9007 255 0 0 
-9.51989 10.0436 16.1405 255 0 0 
-9.68134 -5.95092 -13.3508 255 0 0 
-9.58897 -6.97767 -15.1862 255 0 0 
-9.66255 -2.09297 -6.44913 255 0 0 
-9.54258 -8.5721 -18.0378 255 0 0 
-9.52428 -4.44759 -10.6592 255 0 0 
-9.29998 -6.37382 -14.1017 255 0 0 
-9.27635 -7.05014 -15.3112 255 0 0 
-9.45532 -3.60869 -9.15748 255 0 0 
-9.21475 -1.74341 -5.81777 255 0 0 
-9.21416 -6.8884 -15.021 255 0 0 
-9.29487 0.461093 -1.87546 255 0 0 
-9.39519 -2.77962 -7.67366 255 0 0 
-9.28559 -5.27706 -12.1396 255 0 0 
-9.4427 -1.97327 -6.23189 255 0 0 
-9.47113 0.0715814 -2.5745 255 0 0 
-9.63737 0.0466976 -2.62118 255 0 0 
-9.3597 3.95921 4.38104 255 0 0 
-9.59979 6.3713 8.69259 255 0 0 
-9.59194 8.00428 11.6137 255 0 0 
-9.6786 8.56048 12.6075 255 0 0 
-9.62073 2.97558 2.61814 255 0 0 
-9.61848 7.18539 10.1486 255 0 0 
-9.43118 4.38136 5.13523 255 0 0 
-9.65503 5.69643 7.48468 255 0 0 
-9.28958 9.53084 14.3487 255 0 0 
-9.44887 8.78654 13.015 255 0 0 
-9.5218 8.68134 12.8258 255 0 0 
-9.40058 7.91979 11.4653 255 0 0 
-9.13371 5.14592 6.50699 255 0 0 
-9.34129 6.30844 8.58365 255 0 0 
-9.23456 2.94241 2.56388 255 0 0 
-9.40191 8.70497 12.8698 255 0 0 
-9.40455 9.02835 13.4482 255 0 0 
-9.62746 9.77605 14.7826 255 0 0 
-9.34896 4.18051 4.77703 255 0 0 
-9.2317 4.61018 5.54727 255 0 0 
-9.20711 4.63911 5.59937 255 0 0 
-9.26432 9.63318 14.5321 255 0 0 
-9.17251 8.591 12.6691 255 0 0 
-9.44254 8.93377 13.2785 255 0 0 
-9.64414 8.07175 11.7337 255 0 0 
-9.44551 0.571351 -1.6802 255 0 0 
-9.3038 1.45567 -0.0965014 255 0 0 
-9.53792 5.39051 6.93897 255 0 0 
-9.56067 4.92833 6.11194 255 0 0 
-9.35372 2.33958 1.48396 255 0 0 
-9.47924 2.72361 2.16926 255 0 0 
-9.3985 3.31354 3.22556 255 0 0 
-9.5133 -0.563556 -3.71117 255 0 0 
-9.1684 -7.86692 -16.7707 255 0 0 
-9.17653 -5.51939 -12.5716 255 0 0 
-9.1294 -2.62776 -7.39855 255 0 0 
-9.51215 -0.765254 -4.07194 255 0 0 
-9.28112 -3.42117 -8.81976 255 0 0 
-9.20509 -0.384506 -3.38688 255 0 0 
-9.45182 -2.89473 -7.88029 255 0 0 
-9.43302 -5.16377 -11.939 255 0 0 
-9.49526 -2.84405 -7.79022 255 0 0 
-9.34463 -7.44875 -16.0253 255 0 0 
-9.30015 -7.29893 -15.7566 255 0 0 
-9.56677 -5.41428 -12.3891 255 0 0 
-9.5886 -7.58221 -16.2677 255 0 0 
-9.6664 -7.26998 -15.7103 255 0 0 
-9.67555 -8.70733 -18.0805 255 0 0 
-9.50846 -8.75004 -18.0567 255 0 0 
-9.13321 -5.02718 -10.7551 255 0 0 
-9.13261 -8.5091 -17.1361 255 0 0 
-9.1333 -8.5318 -17.0047 255 0 0 
-9.1312 -5.31679 -11.6877 255 0 0 
-9.13157 -7.00138 -14.6693 255 0 0 
-9.13131 -6.35147 -13.539 255 0 0 
-9.13175 -3.80889 -8.86875 255 0 0 
-9.12956 -3.0995 -8.02746 255 0 0 
-9.13037 -0.622695 -3.43426 255 0 0 
-9.13157 -0.117919 -2.28837 255 0 0 
-9.13265 -1.18989 -3.98691 255 0 0 
-9.12877 -3.08739 -8.16591 255 0 0 
-9.13142 -2.62058 -6.79403 255 0 0 
-9.13039 -0.670215 -3.5135 255 0 0 
-9.13107 2.4953 2.28491 255 0 0 
-9.13291 0.757852 -0.45027 255 0 0 
-9.12971 0.654555 -1.28152 255 0 0 
-9.13118 4.65333 6.16844 255 0 0 
-9.13184 2.25823 2.01808 255 0 0 
-9.13108 2.24568 1.84129 255 0 0 
-9.12934 1.54967 0.243238 255 0 0 
-9.13174 9.00152 14.0591 255 0 0 
-9.12858 7.30591 10.3862 255 0 0 
-9.12859 5.68158 7.48339 255 0 0 
-9.1291 4.96909 6.31155 255 0 0 
-9.13197 9.14515 14.3628 255 0 0 
-9.13125 7.4331 11.1545 255 0 0 
-9.131 8.49003 12.9948 255 0 0 
-9.12876 7.71322 11.1527 255 0 0 
-9.13012 7.56256 11.1582 255 0 0 
-9.13039 7.90339 11.8214 255 0 0 
-9.13225 9.37763 14.8355 255 0 0 
-9.12874 9.09886 13.6265 255 0 0 
-9.13283 9.40462 15.0026 255 0 0 
-9.13049 4.16874 5.16105 255 0 0 
-9.13315 6.95927 10.6926 255 0 0 
-9.13234 7.32916 11.1898 255 0 0 
-9.13204 5.7386 8.28375 255 0 0 
-9.13269 3.97013 5.2511 255 0 0 
-9.13338 5.21594 7.62109 255 0 0 
-9.12983 1.24322 -0.204728 255 0 0 
-9.13345 4.78681 6.86614 255 0 0 
-9.13077 -3.2833 -8.11165 255 0 0 
-9.12947 -6.13788 -13.4801 255 0 0 
-9.13199 0.0886727 -1.83371 255 0 0 
-9.12865 -5.5432 -12.5833 255 0 0 
-9.12929 -6.09917 -13.4476 255 0 0 
-9.12897 -5.59037 -12.6025 255 0 0 
-9.13073 -1.25407 -4.4895 255 0 0 
-9.13033 -6.23408 -13.4939 255 0 0 
-9.13122 -4.04521 -9.38623 255 0 0 
-9.13007 -8.24542 -17.173 255 0 0 
-9.13255 -6.83158 -14.149 255 0 0 
-9.13302 -8.64524 -17.277 255 0 0 
-9.13282 -5.18184 -11.1307 255 0 0 
-9.11292 9.63395 15.547 255 0 0 
-9.56737 9.83566 15.9002 255 0 0 
-9.27143 9.45004 15.2166 255 0 0 
-8.77302 10.9039 17.2068 255 0 0 
-9.24949 10.2189 15.5789 255 0 0 
-9.38584 10.3999 15.8996 255 0 0 
-9.25253 10.0065 15.1997 255 0 0 
-9.02978 9.8305 15.6567 255 0 0 
-8.99293 10.2527 15.6591 255 0 0 
-8.62347 10.4151 16.9421 255 0 0 
-8.8495 10.1824 16.5272 255 0 0 
-7.9015 10.9855 17.9065 255 0 0 
-7.88135 11.2007 17.798 255 0 0 
-9.18534 10.6667 16.3765 255 0 0 
-8.6184 11.0675 17.0942 255 0 0 
-8.56791 10.4908 16.6116 255 0 0 
-7.92267 10.6951 17.444 255 0 0 
-7.55273 10.8517 17.7232 255 0 0 
-7.6963 11.0015 17.9863 255 0 0 
-7.00635 11.4156 18.0723 255 0 0 
-7.30455 11.3673 18.0455 255 0 0 
-7.76616 10.8534 17.3061 255 0 0 
-7.25753 11.2042 17.4857 255 0 0 
-6.94495 10.9947 17.9778 255 0 0 
-7.13401 11.1154 18.19 255 0 0 
-7.13514 11.1259 18.2084 255 0 0 
-4.84064 11.4313 18.2357 255 0 0 
1.15481 11.2342 18.3483 255 0 0 
0.669461 11.2687 18.3286 255 0 0 
-5.83438 11.3532 18.2803 255 0 0 
5.31293 11.3431 18.2861 255 0 0 
3.32309 11.5825 18.1493 255 0 0 
6.03938 11.3214 18.2985 255 0 0 
-3.33445 11.559 18.1627 255 0 0 
-1.80033 11.5796 18.1509 255 0 0 
0.909212 11.4854 18.2048 255 0 0 
2.60749 11.6269 18.1239 255 0 0 
3.49129 11.5803 18.1505 255 0 0 
5.40245 11.5667 18.1583 255 0 0 
-2.47627 11.4211 18.2415 255 0 0 
2.29928 11.3297 18.2937 255 0 0 
0.0291243 11.2602 18.3334 255 0 0 
-3.16698 11.4276 18.2378 255 0 0 
-5.77726 11.417 18.2438 255 0 0 
-7.30028 11.4983 17.8636 255 0 0 
-6.7439 11.5194 17.9022 255 0 0 
-6.17894 10.9715 17.8175 255 0 0 
-6.09154 11.1442 17.7346 255 0 0 
5.60848 10.9596 17.9179 255 0 0 
0.687423 10.9947 17.9797 255 0 0 
-2.8907 10.9383 17.8803 255 0 0 
3.39597 11.0805 18.1309 255 0 0 
-2.38746 10.9576 17.9143 255 0 0 
-2.91382 11.1677 18.2847 255 0 0 
0.911633 11.1336 18.2246 255 0 0 
-0.983717 11.1881 18.3206 255 0 0 
-4.1985 11.1821 18.3101 255 0 0 
0.139044 11.2054 18.3511 255 0 0 
-1.20225 11.119 18.1988 255 0 0 
-3.47999 11.1361 18.2289 255 0 0 
-5.50052 11.0008 17.9904 255 0 0 
-5.81839 11.1409 18.2374 255 0 0 
-3.01992 11.1341 18.2254 255 0 0 
0.954246 10.956 17.9114 255 0 0 
5.97317 11.1721 18.2924 255 0 0 
1.93688 11.092 18.1511 255 0 0 
3.50086 11.0325 18.0463 255 0 0 
5.5671 11.1719 18.2921 255 0 0 
6.32024 11.3166 18.2854 255 0 0 
7.50828 11.4789 17.976 255 0 0 
6.9487 11.3698 18.1404 255 0 0 
-0.767721 11.4733 17.8231 255 0 0 
4.31485 11.3664 17.6355 255 0 0 
-3.4501 11.501 17.8719 255 0 0 
-2.91558 11.4498 17.7819 255 0 0 
-1.32057 11.4741 17.8245 255 0 0 
3.14028 11.5719 17.9964 255 0 0 
3.83299 11.5008 17.8715 255 0 0 
2.48893 11.5342 17.9301 255 0 0 
-0.678222 11.6184 18.078 255 0 0 
0.342688 11.521 17.9069 255 0 0 
2.57536 11.6329 18.1035 255 0 0 
0.484164 11.5417 17.9432 255 0 0 
0.323449 11.5548 17.9662 255 0 0 
5.87082 11.4587 17.7975 255 0 0 
-2.56948 11.6296 18.0977 255 0 0 
-4.41504 11.3801 17.6595 255 0 0 
-0.809878 11.4619 17.8031 255 0 0 
-2.17563 11.5117 17.8906 255 0 0 
-5.80616 11.5123 17.8917 255 0 0 
-4.71462 11.4469 17.7767 255 0 0 
-5.39069 11.1601 17.7392 255 0 0 
4.71808 10.9472 17.8611 255 0 0 
-4.59096 11.2163 17.707 255 0 0 
-2.05697 11.1283 17.7574 255 0 0 
-0.381623 10.9469 17.8612 255 0 0 
5.68601 11.2236 17.7029 255 0 0 
3.42291 11.0485 17.8031 255 0 0 
6.00392 11.09 17.7793 255 0 0 
-4.1842 11.3506 17.6301 255 0 0 
5.72596 11.0319 17.8126 255 0 0 
0.953551 11.2173 17.7065 255 0 0 
-1.37779 11.2257 17.7016 255 0 0 
6.03081 11.2715 17.6754 255 0 0 
0.467503 11.0351 17.8107 255 0 0 
-1.3625 10.9968 17.8327 255 0 0 
-4.90065 10.9418 17.8642 255 0 0 
-3.06258 11.2562 17.6842 255 0 0 
-1.79534 11.0826 17.7836 255 0 0 
6.69836 11.0368 18.0528 255 0 0 
6.48137 10.9478 17.8964 255 0 0 
7.77272 11.4348 17.8737 255 0 0 
7.30339 11.4217 17.7292 255 0 0 
7.03177 11.1706 17.5795 255 0 0 
8.26578 10.8699 17.751 255 0 0 
8.40526 10.6839 17.4218 255 0 0 
9.21481 10.6136 16.895 255 0 0 
9.07758 10.8538 16.9998 255 0 0 
9.13863 10.6339 17.0189 255 0 0 
7.75015 11.2265 17.3829 255 0 0 
8.26813 10.6775 17.1601 255 0 0 
9.07591 10.2493 16.6448 255 0 0 
8.82197 10.4326 16.9727 255 0 0 
9.81212 9.95741 15.2943 255 0 0 
9.8623 9.85904 14.9816 255 0 0 
9.17588 10.8691 16.7377 255 0 0 
8.68108 10.4166 16.76 255 0 0 
8.62933 10.5197 16.7921 255 0 0 
9.43549 9.75014 15.7523 255 0 0 
9.87031 -5.84991 -12.3983 255 0 0 
9.8681 -6.49323 -13.9981 255 0 0 
9.86776 -8.29501 -17.2891 255 0 0 
9.86806 -8.72661 -18.0002 255 0 0 
9.86994 -5.47698 -11.8074 255 0 0 
9.86796 -7.96975 -16.6663 255 0 0 
9.87118 -3.46202 -7.95192 255 0 0 
9.87037 -0.945951 -3.6153 255 0 0 
9.86809 -1.15586 -4.45181 255 0 0 
9.87071 -0.511163 -2.76711 255 0 0 
9.86886 -3.10868 -7.78804 255 0 0 
9.8688 -1.76626 -5.40013 255 0 0 
9.86653 -3.34572 -8.6855 255 0 0 
9.86955 3.90629 4.89935 255 0 0 
9.87142 7.20845 11.1856 255 0 0 
9.87077 5.84181 8.60856 255 0 0 
9.87064 0.985278 -0.105432 255 0 0 
9.87099 2.77011 3.15751 255 0 0 
9.86915 1.22186 0.0164311 255 0 0 
9.87083 3.60515 4.62036 255 0 0 
9.86923 7.03568 10.4323 255 0 0 
9.87012 7.38281 11.2338 255 0 0 
9.86679 9.17075 13.7582 255 0 0 
9.86716 8.71246 13.0136 255 0 0 
9.8693 9.19487 14.3081 255 0 0 
9.87021 7.69227 11.8045 255 0 0 
9.87035 8.40474 13.1073 255 0 0 
9.86689 4.31484 5.09102 255 0 0 
9.86696 4.73557 5.85861 255 0 0 
9.8678 2.97752 2.88404 255 0 0 
9.86899 6.24034 8.96017 255 0 0 
9.87054 8.52015 13.3525 255 0 0 
9.86795 9.09773 13.8624 255 0 0 
9.86679 2.48956 1.80718 255 0 0 
9.86914 4.02158 5.02246 255 0 0 
9.87096 7.28372 11.2268 255 0 0 
9.86952 1.01302 -0.28125 255 0 0 
9.87027 1.60464 0.927403 255 0 0 
9.87085 3.47848 4.39707 255 0 0 
9.87001 2.1277 1.81063 255 0 0 
9.86778 1.79859 0.770508 255 0 0 
9.86926 -1.90227 -5.54974 255 0 0 
9.86669 -6.89865 -15.008 255 0 0 
9.86942 0.22733 -1.70692 255 0 0 
9.86897 -3.85757 -9.10545 255 0 0 
9.86781 -3.20573 -8.17555 255 0 0 
9.86717 -7.12376 -15.3132 255 0 0 
9.86699 -2.10564 -6.37288 255 0 0 
9.87125 -0.820251 -3.2113 255 0 0 
9.86863 -7.03009 -14.8507 255 0 0 
9.8696 -5.76231 -12.3865 255 0 0 
9.86787 -7.17486 -15.2629 255 0 0 
9.86981 -4.90459 -10.809 255 0 0 
9.86951 -7.36615 -15.2736 255 0 0 
9.87025 -8.8615 -17.7986 255 0 0 
9.41067 9.95845 15.114 255 0 0 
9.33417 10.3993 15.902 255 0 0 
9.6416 9.9507 15.097 255 0 0 
9.29245 9.76008 15.0216 255 0 0 
9.8343 -4.50771 -9.75681 255 0 0 
9.84449 -8.60467 -17.0859 255 0 0 
9.64091 -6.21032 -12.7997 255 0 0 
9.51597 -6.37589 -13.094 255 0 0 
9.83766 -5.60901 -11.7269 255 0 0 
9.77282 -3.63158 -8.18859 255 0 0 
9.3709 -8.26536 -16.4719 255 0 0 
9.8482 -0.358745 -2.335 255 0 0 
9.53426 -2.24571 -5.70624 255 0 0 
9.76643 -1.3058 -4.028 255 0 0 
9.56079 -1.17034 -3.78302 255 0 0 
9.32373 -6.57847 -13.4538 255 0 0 
9.3343 -0.867217 -3.23785 255 0 0 
9.35227 -1.455 -4.28949 255 0 0 
9.3698 -4.38072 -9.52313 255 0 0 
9.37862 1.23941 0.529888 255 0 0 
9.36043 0.102274 -1.504 255 0 0 
9.75556 6.1955 9.39051 255 0 0 
9.81535 7.51295 11.7464 255 0 0 
9.49833 2.41312 2.62788 255 0 0 
9.67836 5.11129 7.45208 255 0 0 
9.74435 0.0686003 -1.56923 255 0 0 
9.58055 2.93496 3.56029 255 0 0 
9.39105 8.19786 12.9774 255 0 0 
9.66748 8.11888 12.8323 255 0 0 
9.39355 4.72299 6.76134 255 0 0 
9.42566 8.92962 14.286 255 0 0 
9.53175 5.37009 7.917 255 0 0 
9.44545 3.05073 3.76917 255 0 0 
9.3798 2.00915 1.90683 255 0 0 
9.33995 7.63284 11.9674 255 0 0 
9.48567 7.2903 11.3526 255 0 0 
9.32012 1.19587 0.452806 255 0 0 
9.71415 8.51684 13.5436 255 0 0 
9.68288 7.15919 11.1154 255 0 0 
9.43409 7.44887 11.637 255 0 0 
9.56619 4.5468 6.44377 255 0 0 
9.73217 9.26449 14.8808 255 0 0 
9.49696 6.04225 9.11989 255 0 0 
9.80845 5.25949 7.71547 255 0 0 
9.8682 0.961539 0.0264609 255 0 0 
9.52444 1.45189 0.908084 255 0 0 
9.64044 4.30134 6.0037 255 0 0 
9.57174 3.92757 5.33599 255 0 0 
9.85497 5.21323 7.63212 255 0 0 
9.53071 2.06842 2.01086 255 0 0 
9.84234 4.64099 6.60865 255 0 0 
9.7892 -0.00637064 -1.70392 255 0 0 
9.61798 -1.11022 -3.67621 255 0 0 
9.56168 -4.53309 -9.79818 255 0 0 
9.4241 -0.693905 -2.929 255 0 0 
9.31977 -5.5928 -11.6906 255 0 0 
9.38694 -4.87143 -10.4011 255 0 0 
9.60293 -2.301 -5.80604 255 0 0 
9.37161 -2.35973 -5.90808 255 0 0 
9.40027 -8.81856 -17.4619 255 0 0 
9.6418 -6.14571 -12.6841 255 0 0 
9.40131 -7.78792 -15.6182 255 0 0 
9.67261 -5.29765 -11.1675 255 0 0 
9.64879 -7.35407 -14.8458 255 0 0 
9.58988 -4.99492 -10.6247 255 0 0 
9.83795 -8.08315 -16.1529 255 0 0 
9.58888 -7.29153 -14.7331 255 0 0 
9.75826 -2.72064 -7.57079 255 0 0 
9.76924 -7.58922 -16.2803 255 0 0 
9.59098 -6.72645 -14.7342 255 0 0 
9.65916 -4.84355 -11.367 255 0 0 
9.54819 -5.23695 -12.0691 255 0 0 
9.83932 -6.95317 -15.1435 255 0 0 
9.47745 -6.7146 -14.7113 255 0 0 
9.5954 -4.36745 -10.5143 255 0 0 
9.32519 -3.52798 -9.00914 255 0 0 
9.55275 -2.63802 -7.42017 255 0 0 
9.32034 -3.70649 -9.32838 255 0 0 
9.30209 -4.49948 -10.7466 255 0 0 
9.30093 -5.8836 -13.2225 255 0 0 
9.83144 0.0901781 -2.54369 255 0 0 
9.48898 -2.50039 -7.17314 255 0 0 
9.38455 -1.51264 -5.40494 255 0 0 
9.61056 1.89253 0.683188 255 0 0 
9.82132 7.01925 9.85097 255 0 0 
9.75454 5.64988 7.40236 255 0 0 
9.75303 5.4591 7.06111 255 0 0 
9.65704 1.29276 -0.390267 255 0 0 
9.86082 3.68004 3.87737 255 0 0 
9.67557 5.78792 7.6503 255 0 0 
9.63987 2.27601 1.36877 255 0 0 
9.71527 9.4271 14.1596 255 0 0 
9.48082 8.03998 11.6815 255 0 0 
9.43682 3.43586 3.44615 255 0 0 
9.51632 5.75317 7.59032 255 0 0 
9.63359 7.87126 11.3776 255 0 0 
9.32085 7.9181 11.4658 255 0 0 
9.70273 7.52223 10.7523 255 0 0 
9.44995 3.72383 3.96109 255 0 0 
9.50437 5.30409 6.78716 255 0 0 
9.48484 4.88638 6.04022 255 0 0 
9.49612 8.0272 11.6585 255 0 0 
9.43174 4.5385 5.41865 255 0 0 
9.66141 9.51084 14.3101 255 0 0 
9.64169 9.39686 14.1065 255 0 0 
9.83457 9.63716 14.5337 255 0 0 
9.39177 9.41433 14.1413 255 0 0 
9.70223 5.77421 7.62544 255 0 0 
9.62766 3.22469 3.06589 255 0 0 
9.81831 3.18753 2.99693 255 0 0 
9.7736 2.57483 1.90154 255 0 0 
9.65933 3.19554 3.01334 255 0 0 
9.55678 4.11604 4.66124 255 0 0 
9.46628 0.974036 -0.957918 255 0 0 
9.65733 3.37606 3.33627 255 0 0 
9.38455 -6.30331 -13.9743 255 0 0 
9.3737 -2.02495 -6.32119 255 0 0 
9.65387 -0.307677 -3.25305 255 0 0 
9.5221 -3.50574 -8.97191 255 0 0 
9.56854 -4.02732 -9.90551 255 0 0 
9.37791 -4.30195 -10.3943 255 0 0 
9.34885 -4.54558 -10.8297 255 0 0 
9.33729 -6.53535 -14.3888 255 0 0 
9.32963 -8.49122 -17.8873 255 0 0 
9.78511 -5.96999 -13.3839 255 0 0 
9.42064 -8.09461 -17.1792 255 0 0 
9.52929 -8.15839 -17.2949 255 0 0 
9.70935 -5.40092 -12.3648 255 0 0 
9.86074 -2.59809 -7.35311 255 0 0 
9.6706 -4.96892 -11.5914 255 0 0 
9.30367 -4.24795 -9.65545 255 0 0 
9.30289 -8.40575 -17.25 255 0 0 
9.30515 -4.148 -9.177 255 0 0 
9.30318 -7.4007 -15.3934 255 0 0 
9.30269 -5.19706 -11.5517 255 0 0 
9.30335 -4.00714 -9.28986 255 0 0 
9.30313 -8.79688 -17.9021 255 0 0 
9.30123 -2.19787 -6.48242 255 0 0 
9.30245 -0.487591 -3.17537 255 0 0 
9.30391 -1.80318 -5.2337 255 0 0 
9.30341 -3.25928 -7.93846 255 0 0 
9.30202 -3.34567 -8.37511 255 0 0 
9.30117 -3.15555 -8.2063 255 0 0 
9.30107 -4.60926 -10.8277 255 0 0 
9.30261 1.97641 1.2645 255 0 0 
9.30401 1.84926 1.32075 255 0 0 
9.30369 4.6452 6.2566 255 0 0 
9.30548 5.75237 8.59997 255 0 0 
9.30419 3.99826 5.20158 255 0 0 
9.30282 2.11782 1.55919 255 0 0 
9.30275 2.9634 3.05899 255 0 0 
9.30306 7.04995 10.4308 255 0 0 
9.30414 7.01334 10.584 255 0 0 
9.30181 6.81106 9.75157 255 0 0 
9.30189 3.28541 3.45941 255 0 0 
9.30079 5.72803 7.60719 255 0 0 
9.3014 3.59565 3.91691 255 0 0 
9.30076 5.46784 7.13527 255 0 0 
9.30184 5.29889 7.05238 255 0 0 
9.30055 2.06707 1.00993 255 0 0 
9.30266 5.45516 7.49735 255 0 0 
9.30323 7.00356 10.383 255 0 0 
9.30181 5.96089 8.23073 255 0 0 
9.30417 8.76558 13.7243 255 0 0 
9.30358 8.21147 12.6146 255 0 0 
9.30376 1.32413 0.331003 255 0 0 
9.30497 4.54265 6.33252 255 0 0 
9.30186 2.24445 1.59311 255 0 0 
9.30355 5.45696 7.68037 255 0 0 
9.30492 5.64226 8.28963 255 0 0 
9.30346 2.70792 2.74569 255 0 0 
9.30347 0.983927 -0.336345 255 0 0 
9.30304 -3.66949 -8.74806 255 0 0 
9.30374 -1.52388 -4.76745 255 0 0 
9.30098 -6.54786 -14.313 255 0 0 
9.30054 -2.14753 -6.53073 255 0 0 
9.303 -2.4545 -6.58306 255 0 0 
9.30142 -6.54574 -14.2211 255 0 0 
9.30352 -0.155634 -2.36481 255 0 0 
9.30324 -7.96353 -16.3887 255 0 0 
9.30532 -3.92219 -8.73843 255 0 0 
9.30499 -1.08186 -3.72454 255 0 0 
9.30531 -4.7465 -10.2151 255 0 0 
9.3048 -3.67453 -8.40063 255 0 0 
9.30524 -6.35598 -13.1089 255 0 0 
3.09269 -6.24141 -13.7126 255 0 0 
-8.93242 -6.44143 -13.5972 255 0 0 
3.26703 -6.29118 -13.6839 255 0 0 
-5.11982 -6.49562 -13.566 255 0 0 
3.34006 -6.30168 -13.6779 255 0 0 
3.02474 -6.27477 -13.6934 255 0 0 
2.24119 -6.42127 -13.6089 255 0 0 
6.47867 -6.34044 -13.6555 255 0 0 
0.959669 -6.57237 -13.5217 255 0 0 
8.70804 -6.21843 -13.7259 255 0 0 
5.6377 -6.34128 -13.655 255 0 0 
3.03645 -6.4347 -13.6011 255 0 0 
3.88641 -6.33943 -13.6561 255 0 0 
4.32327 -6.47006 -13.5807 255 0 0 
-3.24987 -6.53617 -13.5426 255 0 0 
-5.03695 -6.58738 -13.513 255 0 0 
7.52519 -6.44957 -13.5925 255 0 0 
2.94223 -6.43923 -13.5985 255 0 0 
-2.62386 -6.33316 -13.6597 255 0 0 
1.61322 -6.23928 -13.7139 255 0 0 
-8.37767 -6.41499 -13.6125 255 0 0 
1.11298 -6.36511 -13.6413 255 0 0 
1.95907 -6.34089 -13.6553 255 0 0 
-5.33956 -6.30705 -13.6748 255 0 0 
5.39215 -6.41621 -13.2158 255 0 0 
2.56465 -6.53441 -13.4205 255 0 0 
1.52265 -6.48616 -13.3369 255 0 0 
8.41219 -6.52348 -13.4015 255 0 0 
8.20301 -6.45962 -13.2909 255 0 0 
5.70123 -6.44687 -13.2688 255 0 0 
-6.44547 -6.39369 -13.1767 255 0 0 
1.24708 -6.45202 -13.2778 255 0 0 
-5.54582 -6.38761 -13.1662 255 0 0 
0.304266 -6.40222 -13.1915 255 0 0 
-0.969537 -6.41316 -13.2105 255 0 0 
-8.9909 -6.41822 -13.2192 255 0 0 
-5.50494 -6.39187 -13.1736 255 0 0 
-8.21834 -6.49577 -13.3535 255 0 0 
-7.25519 -6.54458 -13.4381 255 0 0 
2.11621 -6.42012 -13.2225 255 0 0 
0.0884705 -6.44763 -13.2702 255 0 0 
1.19502 -6.38242 -13.1572 255 0 0 
5.51301 -6.55645 -13.4586 255 0 0 
0.455515 -6.52164 -13.3983 255 0 0 
-6.95874 -6.5859 -13.5096 255 0 0 
0.101531 -6.58382 -13.506 255 0 0 
1.31101 -6.56868 -13.4798 255 0 0 
5.49761 -6.4876 -13.3394 255 0 0 
0.0665045 -6.1741 -13.6807 255 0 0 
-8.59744 -6.13366 -13.6107 255 0 0 
-5.90913 -6.14046 -13.6225 255 0 0 
2.36315 -6.13122 -13.6065 255 0 0 
-6.17054 -6.16634 -13.6673 255 0 0 
-7.38026 -6.06826 -13.4974 255 0 0 
7.13944 -6.02961 -13.4305 255 0 0 
-7.41397 -5.99985 -13.3789 255 0 0 
5.7128 -6.01812 -13.4106 255 0 0 
3.52088 -6.01157 -13.3992 255 0 0 
6.20372 -6.09122 -13.5372 255 0 0 
-4.57696 -6.0256 -13.4235 255 0 0 
3.00864 -6.06684 -13.495 255 0 0 
-2.27907 -5.99839 -13.3764 255 0 0 
3.0894 -6.10525 -13.5615 255 0 0 
1.18787 -6.03144 -13.4336 255 0 0 
7.28263 -5.99515 -13.3708 255 0 0 
6.56785 -6.04108 -13.4503 255 0 0 
-6.77154 -6.0435 -13.4545 255 0 0 
-4.77373 -6.19245 -13.7125 255 0 0 
-4.07775 -6.05117 -13.4678 255 0 0 
2.31893 -6.17273 -13.6783 255 0 0 
-4.6475 -6.04148 -13.451 255 0 0 
-7.41191 -6.02042 -13.4146 255 0 0 
1.6637 -6.34779 -13.141 255 0 0 
-8.03336 -6.19098 -13.2315 255 0 0 
0.751808 -6.25804 -13.1928 255 0 0 
-7.91643 -6.35191 -13.1386 255 0 0 
-5.25263 -6.17646 -13.2399 255 0 0 
-6.47745 -6.24282 -13.2016 255 0 0 
9.22705 -6.05335 -13.3109 255 0 0 
0.871682 -6.07655 -13.2975 255 0 0 
0.189984 -6.11502 -13.2753 255 0 0 
-0.838182 -6.15043 -13.2549 255 0 0 
3.60486 -6.21169 -13.2196 255 0 0 
4.97038 -6.02066 -13.3298 255 0 0 
6.08933 -6.06293 -13.3054 255 0 0 
1.79632 -6.1364 -13.263 255 0 0 
-1.64859 -6.04903 -13.3134 255 0 0 
5.95815 -6.01787 -13.3314 255 0 0 
4.41966 -6.06114 -13.3064 255 0 0 
9.0626 -6.09253 -13.2883 255 0 0 
-6.49509 -6.23633 -13.2053 255 0 0 
-2.45501 -6.34033 -13.1453 255 0 0 
-5.56592 -6.21629 -13.2169 255 0 0 
-2.03035 -6.14747 -13.2566 255 0 0 
-8.32737 -6.0179 -13.3314 255 0 0 
4.86672 -6.32725 -13.1529 255 0 0 
8.74091 3.87815 0.0958663 255 0 0 
8.36173 4.81642 -0.45197 255 0 0 
8.59142 3.50547 0.519183 255 0 0 
8.14166 4.35934 0.431865 255 0 0 
8.7918 2.92594 0.350463 255 0 0 
9.10322 1.27023 -0.235133 255 0 0 
8.6541 2.89521 0.609384 255 0 0 
9.12816 2.61353 -0.282025 255 0 0 
7.71942 5.18228 -0.584483 255 0 0 
8.13878 4.07415 0.697012 255 0 0 
4.28942 4.47045 0.697012 255 0 0 
5.76757 4.16662 0.697012 255 0 0 
7.02239 4.00452 0.697012 255 0 0 
4.64289 4.57542 0.697012 255 0 0 
8.81886 0.580957 0.299572 255 0 0 
9.1831 0.399122 -0.385336 255 0 0 
8.76269 0.0849236 0.405204 255 0 0 
7.42174 4.9329 0.0324813 255 0 0 
4.31552 4.97477 0.108317 255 0 0 
4.73222 4.94377 0.166531 255 0 0 
3.93401 4.74817 0.533805 255 0 0 
5.03686 4.92329 0.20499 255 0 0 
5.73877 3.38025 0.697012 255 0 0 
8.50885 1.0759 0.697012 255 0 0 
6.70696 3.14303 0.697012 255 0 0 
7.38499 2.75091 0.697012 255 0 0 
8.32036 2.80929 0.697012 255 0 0 
8.43274 2.80436 0.697012 255 0 0 
8.10749 1.39519 0.697012 255 0 0 
6.96109 3.33837 0.697012 255 0 0 
7.88687 2.05907 0.697012 255 0 0 
8.38203 2.9522 0.697012 255 0 0 
6.88588 2.23739 0.697012 255 0 0 
8.7689 -0.580533 0.393525 255 0 0 
9.09595 -1.75456 -0.221449 255 0 0 
9.28502 -1.73928 -0.576976 255 0 0 
6.80831 5.02513 0.0137707 255 0 0 
6.31305 4.90505 0.239228 255 0 0 
6.88906 5.35003 -0.596297 255 0 0 
5.80441 5.29646 -0.495717 255 0 0 
3.70561 5.2785 -0.461981 255 0 0 
3.53983 5.28374 -0.471825 255 0 0 
1.18795 5.22965 -0.370257 255 0 0 
3.45921 4.74745 0.535163 255 0 0 
5.27099 2.91441 0.697012 255 0 0 
8.21044 0.258764 0.697012 255 0 0 
7.84332 -0.390644 0.697012 255 0 0 
5.22869 2.39497 0.697012 255 0 0 
6.65793 0.219292 0.697012 255 0 0 
4.5675 3.70513 0.697012 255 0 0 
4.55036 3.3286 0.697012 255 0 0 
8.60353 -2.04039 0.697012 255 0 0 
8.0169 -0.668223 0.697012 255 0 0 
7.91535 -0.0117242 0.697012 255 0 0 
6.20097 1.87021 0.697012 255 0 0 
8.8468 -2.44558 0.247042 255 0 0 
8.74189 -2.23646 0.444303 255 0 0 
9.29253 -3.0609 -0.591091 255 0 0 
9.14187 -3.01482 -0.307797 255 0 0 
2.74798 4.73581 0.557019 255 0 0 
0.976047 5.03056 0.00356597 255 0 0 
0.315654 4.75997 0.511648 255 0 0 
2.23826 4.71522 0.595678 255 0 0 
4.79808 1.7532 0.697012 255 0 0 
2.78352 3.29079 0.697012 255 0 0 
0.868064 4.20726 0.697012 255 0 0 
4.01595 2.81434 0.697012 255 0 0 
1.53045 3.82105 0.697012 255 0 0 
3.56457 2.08079 0.697012 255 0 0 
6.37434 -0.343724 0.697012 255 0 0 
4.35298 2.05443 0.697012 255 0 0 
5.35112 0.773198 0.697012 255 0 0 
4.63235 2.68539 0.697012 255 0 0 
2.90412 2.86772 0.697012 255 0 0 
4.81342 2.17956 0.697012 255 0 0 
2.93643 2.50955 0.697012 255 0 0 
2.07608 4.18902 0.697012 255 0 0 
7.52166 -1.98088 0.697012 255 0 0 
6.17896 -0.528976 0.697012 255 0 0 
4.03366 3.9129 0.697012 255 0 0 
1.32767 4.29377 0.697012 255 0 0 
3.34479 4.02119 0.697012 255 0 0 
1.47494 4.4156 0.697012 255 0 0 
8.91558 -3.33098 0.117715 255 0 0 
8.8579 -3.19276 0.226171 255 0 0 
8.64676 -4.73103 0.623191 255 0 0 
8.92926 -3.67245 0.0919887 255 0 0 
-1.14226 5.04081 -0.0156823 255 0 0 
0.196902 5.05867 -0.0492251 255 0 0 
-0.0940341 5.24777 -0.404283 255 0 0 
-1.64279 4.74944 0.531412 255 0 0 
5.69333 -1.25621 0.697012 255 0 0 
2.7682 -3.4624 0.697012 255 0 0 
4.00129 -4.29998 0.697012 255 0 0 
7.03767 -4.22908 0.697012 255 0 0 
0.264538 -5.07146 0.697012 255 0 0 
6.52724 -3.96178 0.697012 255 0 0 
4.19618 -5.51389 0.697012 255 0 0 
1.23679 -3.61003 0.697012 255 0 0 
1.68615 -4.75127 0.697012 255 0 0 
7.69458 -2.44127 0.697012 255 0 0 
3.67445 -6.06821 0.697012 255 0 0 
4.75474 -1.59191 0.697012 255 0 0 
2.34281 -5.74372 0.697012 255 0 0 
1.279 -0.884193 0.697012 255 0 0 
3.57959 -3.86615 0.697012 255 0 0 
0.567183 0.124466 0.697012 255 0 0 
0.296657 -4.47613 0.697012 255 0 0 
0.679826 -2.42834 0.697012 255 0 0 
1.4798 2.56048 0.697012 255 0 0 
2.40811 -6.87859 0.697012 255 0 0 
4.09073 0.770442 0.697012 255 0 0 
3.18534 -0.498205 0.697012 255 0 0 
4.57695 -2.4722 0.697012 255 0 0 
0.394058 2.1722 0.697012 255 0 0 
7.36951 -4.03746 0.697012 255 0 0 
3.74011 -7.32021 0.697012 255 0 0 
2.56717 -4.88422 0.697012 255 0 0 
6.93703 -2.35259 0.697012 255 0 0 
0.282971 -5.04151 0.697012 255 0 0 
2.94729 -5.5968 0.697012 255 0 0 
0.801298 -0.789662 0.697012 255 0 0 
6.10112 -1.96811 0.697012 255 0 0 
0.349063 -0.436652 0.697012 255 0 0 
5.23223 -1.52004 0.697012 255 0 0 
1.6919 -8.08359 0.697012 255 0 0 
3.62637 0.20643 0.697012 255 0 0 
1.79454 -5.62901 0.697012 255 0 0 
2.37467 -0.950617 0.697012 255 0 0 
1.11417 -6.5141 0.697012 255 0 0 
6.44919 -3.50123 0.697012 255 0 0 
2.61564 0.346747 0.697012 255 0 0 
2.8444 -2.38584 0.697012 255 0 0 
0.826079 -7.87536 0.697012 255 0 0 
4.79846 -1.53066 0.697012 255 0 0 
0.341471 -3.45952 0.697012 255 0 0 
1.69711 0.0527196 0.697012 255 0 0 
4.13715 -2.15478 0.697012 255 0 0 
2.84169 -2.28421 0.697012 255 0 0 
2.64015 1.12187 0.697012 255 0 0 
3.13157 -7.47976 0.697012 255 0 0 
3.72052 -4.13456 0.697012 255 0 0 
3.34784 0.833298 0.697012 255 0 0 
3.75265 -3.25438 0.697012 255 0 0 
4.29656 -1.1911 0.697012 255 0 0 
2.53761 -6.78425 0.697012 255 0 0 
0.1713 -7.8714 0.697012 255 0 0 
0.36347 -4.17489 0.697012 255 0 0 
0.33276 1.27211 0.697012 255 0 0 
7.73861 -3.01503 0.697012 255 0 0 
6.7966 -2.88072 0.697012 255 0 0 
5.34965 -0.222512 0.697012 255 0 0 
1.21899 -2.532 0.697012 255 0 0 
4.98345 -2.12534 0.697012 255 0 0 
1.35269 0.194767 0.697012 255 0 0 
3.91601 0.390429 0.697012 255 0 0 
1.615 0.752561 0.697012 255 0 0 
2.74137 -0.856897 0.697012 255 0 0 
4.68409 -5.21414 0.697012 255 0 0 
4.40176 -4.18423 0.697012 255 0 0 
4.43176 -1.69297 0.697012 255 0 0 
3.95251 0.372003 0.697012 255 0 0 
1.39234 2.08274 0.697012 255 0 0 
1.49186 -2.60537 0.697012 255 0 0 
2.25864 -7.44799 0.697012 255 0 0 
0.249804 -0.260947 0.697012 255 0 0 
0.550264 -7.32626 0.697012 255 0 0 
1.59843 -3.53705 0.697012 255 0 0 
2.43637 -1.94593 0.697012 255 0 0 
1.47472 -2.67182 0.697012 255 0 0 
2.09479 -0.81197 0.697012 255 0 0 
2.50839 -3.71906 0.697012 255 0 0 
1.8134 -9.03933 0.697012 255 0 0 
0.714729 -6.0747 0.697012 255 0 0 
5.59057 -4.46609 0.697012 255 0 0 
4.37421 -0.0117134 0.697012 255 0 0 
0.507761 -3.21243 0.697012 255 0 0 
7.12455 -2.65575 0.697012 255 0 0 
5.17671 -3.8149 0.697012 255 0 0 
5.05939 -2.44555 0.697012 255 0 0 
2.41133 -6.32709 0.697012 255 0 0 
4.83114 -2.61501 0.697012 255 0 0 
5.11463 -4.22384 0.697012 255 0 0 
1.27901 -0.523092 0.697012 255 0 0 
2.8138 -1.99078 0.697012 255 0 0 
0.618157 -3.89662 0.697012 255 0 0 
2.63173 -7.03813 0.697012 255 0 0 
5.54616 -1.63175 0.697012 255 0 0 
6.34697 -6.83516 0.697012 255 0 0 
5.42172 -8.91136 0.697012 255 0 0 
6.35941 -6.89322 0.697012 255 0 0 
6.41561 -8.01887 0.697012 255 0 0 
7.80874 -4.67144 0.697012 255 0 0 
7.82243 -4.93355 0.697012 255 0 0 
5.479 -8.35524 0.697012 255 0 0 
7.36873 -6.32568 0.697012 255 0 0 
6.965 -5.94212 0.697012 255 0 0 
8.57403 -3.43899 0.697012 255 0 0 
8.54454 -3.80057 0.697012 255 0 0 
6.71828 -6.33541 0.697012 255 0 0 
9.23229 -4.64542 -0.477833 255 0 0 
9.26988 -5.37527 -0.54851 255 0 0 
9.15576 -5.54366 -0.333919 255 0 0 
-1.33627 5.23108 -0.372951 255 0 0 
-3.10943 4.74374 0.542121 255 0 0 
-1.05627 5.11198 -0.149324 255 0 0 
-1.56467 5.18369 -0.283974 255 0 0 
-2.36132 4.04538 0.697012 255 0 0 
-1.91696 4.37025 0.697012 255 0 0 
-5.99055 1.25957 0.697012 255 0 0 
-5.23902 2.355 0.697012 255 0 0 
-3.50712 3.82857 0.697012 255 0 0 
-4.298 1.91889 0.697012 255 0 0 
-0.91573 4.10781 0.697012 255 0 0 
-2.33855 2.98635 0.697012 255 0 0 
-3.48338 2.61814 0.697012 255 0 0 
-7.19919 -0.111041 0.697012 255 0 0 
-2.75444 3.40118 0.697012 255 0 0 
-2.98052 2.89359 0.697012 255 0 0 
-5.66242 1.03213 0.697012 255 0 0 
-5.56574 1.39611 0.697012 255 0 0 
-2.34415 -3.65381 0.697012 255 0 0 
-4.79034 -4.37304 0.697012 255 0 0 
-1.41346 3.12419 0.697012 255 0 0 
-2.90486 -2.94743 0.697012 255 0 0 
-2.2843 -3.28772 0.697012 255 0 0 
-0.0886606 -0.483869 0.697012 255 0 0 
-2.55728 -7.04757 0.697012 255 0 0 
-6.69002 -1.67384 0.697012 255 0 0 
-3.914 -1.4263 0.697012 255 0 0 
-3.71771 -0.707276 0.697012 255 0 0 
-0.459363 -10.0607 0.697012 255 0 0 
-0.237448 -9.23025 0.697012 255 0 0 
-5.56271 -0.645991 0.697012 255 0 0 
-2.68013 -4.95409 0.697012 255 0 0 
-0.493381 -9.72469 0.697012 255 0 0 
-3.39813 1.63391 0.697012 255 0 0 
-0.915589 -3.88908 0.697012 255 0 0 
-0.478507 -0.838792 0.697012 255 0 0 
-5.18161 -1.55654 0.697012 255 0 0 
-1.9905 1.81932 0.697012 255 0 0 
-3.33647 1.28932 0.697012 255 0 0 
-1.28277 -4.21765 0.697012 255 0 0 
-0.781491 3.70434 0.697012 255 0 0 
-0.700801 3.52497 0.697012 255 0 0 
-5.23483 -4.71814 0.697012 255 0 0 
-2.29127 -7.83126 0.697012 255 0 0 
-3.91965 -0.897987 0.697012 255 0 0 
-5.07745 -0.768854 0.697012 255 0 0 
-0.340422 4.09599 0.697012 255 0 0 
-0.572414 -8.0349 0.697012 255 0 0 
-1.50876 -8.95529 0.697012 255 0 0 
-3.29572 -2.25527 0.697012 255 0 0 
-3.77245 -5.46103 0.697012 255 0 0 
-1.52132 2.80648 0.697012 255 0 0 
-0.223342 0.77971 0.697012 255 0 0 
-1.90755 -1.90797 0.697012 255 0 0 
-0.837168 -4.31877 0.697012 255 0 0 
-2.76861 -0.546687 0.697012 255 0 0 
-4.41306 -0.913289 0.697012 255 0 0 
-1.20097 -1.40429 0.697012 255 0 0 
-7.42706 -0.464905 0.697012 255 0 0 
-1.83238 2.38457 0.697012 255 0 0 
-2.59465 -3.67594 0.697012 255 0 0 
-4.52975 0.591599 0.697012 255 0 0 
-2.2745 -1.92688 0.697012 255 0 0 
-0.543864 -5.89788 0.697012 255 0 0 
-1.97439 -5.12782 0.697012 255 0 0 
-5.98731 -3.04102 0.697012 255 0 0 
-6.03295 -0.859717 0.697012 255 0 0 
-3.16671 0.942132 0.697012 255 0 0 
-1.49224 0.307858 0.697012 255 0 0 
-0.667476 -4.82716 0.697012 255 0 0 
-2.65328 0.038852 0.697012 255 0 0 
-0.461168 -5.32743 0.697012 255 0 0 
-5.80557 -1.18665 0.697012 255 0 0 
-5.07068 0.168517 0.697012 255 0 0 
-4.11191 -4.40787 0.697012 255 0 0 
-4.85384 -0.701285 0.697012 255 0 0 
-0.46013 -5.59013 0.697012 255 0 0 
-3.80975 0.827189 0.697012 255 0 0 
-0.0656926 -9.54739 0.697012 255 0 0 
-0.163045 -1.93637 0.697012 255 0 0 
-4.28688 -4.27485 0.697012 255 0 0 
-2.48065 -7.01531 0.697012 255 0 0 
-2.90988 1.25499 0.697012 255 0 0 
-5.47355 -3.98054 0.697012 255 0 0 
-1.02625 -7.40886 0.697012 255 0 0 
-5.86496 -1.31441 0.697012 255 0 0 
-3.37536 1.34359 0.697012 255 0 0 
-1.05657 -8.32558 0.697012 255 0 0 
-0.271705 -7.64091 0.697012 255 0 0 
-5.76264 -3.07263 0.697012 255 0 0 
-1.67323 -7.15238 0.697012 255 0 0 
-3.42424 -1.86844 0.697012 255 0 0 
-2.65246 1.7822 0.697012 255 0 0 
-6.08692 -3.67881 0.697012 255 0 0 
-1.49366 -4.35106 0.697012 255 0 0 
-1.0619 -3.29306 0.697012 255 0 0 
-0.192095 -4.76327 0.697012 255 0 0 
-2.54502 -7.47888 0.697012 255 0 0 
-0.177682 -4.82495 0.697012 255 0 0 
-4.70936 -3.31219 0.697012 255 0 0 
-2.10089 -7.52264 0.697012 255 0 0 
-7.32496 -0.736573 0.697012 255 0 0 
0.0281455 -3.39993 0.697012 255 0 0 
-2.84575 0.217353 0.697012 255 0 0 
-1.24305 -2.74084 0.697012 255 0 0 
-1.67057 -6.04181 0.697012 255 0 0 
-2.23048 -0.485028 0.697012 255 0 0 
-5.27862 -2.03504 0.697012 255 0 0 
-2.66035 0.811425 0.697012 255 0 0 
-0.685757 -3.90181 0.697012 255 0 0 
-5.79195 -0.770462 0.697012 255 0 0 
-0.108278 1.57532 0.697012 255 0 0 
-2.20049 -3.83293 0.697012 255 0 0 
-4.71631 1.09654 0.697012 255 0 0 
-0.061819 -4.51385 0.697012 255 0 0 
-0.23246 -7.92939 0.697012 255 0 0 
-1.75349 -0.608821 0.697012 255 0 0 
5.18051 -8.07825 0.697012 255 0 0 
0.590433 -10.8972 0.697012 255 0 0 
4.95193 -8.59365 0.697012 255 0 0 
5.34794 -6.80036 0.697012 255 0 0 
6.89732 -5.61494 0.697012 255 0 0 
4.79135 -8.56937 0.697012 255 0 0 
2.73031 -10.1004 0.697012 255 0 0 
4.22872 -9.46833 0.697012 255 0 0 
4.93631 -8.27114 0.697012 255 0 0 
3.90007 -7.46155 0.697012 255 0 0 
1.0741 -10.5491 0.697012 255 0 0 
5.31991 -6.1616 0.697012 255 0 0 
2.21575 -9.96311 0.697012 255 0 0 
3.64758 -7.70179 0.697012 255 0 0 
4.93599 -7.75672 0.697012 255 0 0 
4.16722 -7.79983 0.697012 255 0 0 
6.40221 -5.90568 0.697012 255 0 0 
4.49726 -9.13582 0.697012 255 0 0 
3.2075 -10.7139 0.697012 255 0 0 
4.68517 -8.90046 0.697012 255 0 0 
6.14727 -10.3326 0.697012 255 0 0 
7.7468 -7.13216 0.697012 255 0 0 
5.62309 -9.32859 0.697012 255 0 0 
6.9309 -8.50402 0.697012 255 0 0 
6.76627 -10.1342 0.697012 255 0 0 
6.23147 -9.4031 0.697012 255 0 0 
5.7224 -9.42576 0.697012 255 0 0 
7.62667 -7.30261 0.697012 255 0 0 
7.99202 -7.30607 0.697012 255 0 0 
4.75948 -9.9001 0.697012 255 0 0 
3.52246 -10.8589 0.697012 255 0 0 
6.97562 -9.13574 0.697012 255 0 0 
8.92646 -6.17687 0.0972437 255 0 0 
8.8307 -6.58739 0.277307 255 0 0 
8.79071 -6.91441 0.352502 255 0 0 
-5.96035 4.76021 0.511192 255 0 0 
-5.77017 4.68962 0.643751 255 0 0 
-4.98679 4.87354 0.298405 255 0 0 
-6.24693 3.57333 0.697012 255 0 0 
-7.84319 0.453463 0.697012 255 0 0 
-7.73601 3.07585 0.697012 255 0 0 
-7.32829 2.68693 0.697012 255 0 0 
-6.95224 0.67491 0.697012 255 0 0 
-5.32968 3.93765 0.697012 255 0 0 
-7.66896 0.342263 0.697012 255 0 0 
-7.0017 0.517996 0.697012 255 0 0 
-7.49147 1.90569 0.697012 255 0 0 
-8.02145 0.255324 0.697012 255 0 0 
-8.24775 2.54196 0.697012 255 0 0 
-6.32711 2.22957 0.697012 255 0 0 
-8.23493 2.21099 0.697012 255 0 0 
-6.42822 3.50641 0.697012 255 0 0 
-7.85396 2.85519 0.697012 255 0 0 
-8.18379 0.0233045 0.697012 255 0 0 
-6.86361 -5.35699 0.697012 255 0 0 
-7.99866 -4.18908 0.697012 255 0 0 
-7.30558 -2.73013 0.697012 255 0 0 
-6.93277 -6.04325 0.697012 255 0 0 
-1.99965 -8.67806 0.697012 255 0 0 
-5.35091 -5.30443 0.697012 255 0 0 
-7.16735 -3.76402 0.697012 255 0 0 
-2.4324 -8.29297 0.697012 255 0 0 
-5.09259 -5.62494 0.697012 255 0 0 
-4.73315 -6.43027 0.697012 255 0 0 
-0.595923 -10.3247 0.697012 255 0 0 
-3.93047 -7.12979 0.697012 255 0 0 
-3.487 -7.78785 0.697012 255 0 0 
-5.08645 -7.02376 0.697012 255 0 0 
-7.77271 -5.33224 0.697012 255 0 0 
-6.07547 -5.09138 0.697012 255 0 0 
-3.99359 -6.65167 0.697012 255 0 0 
-4.33869 -6.59313 0.697012 255 0 0 
-5.57517 -5.68102 0.697012 255 0 0 
-3.63205 -6.74342 0.697012 255 0 0 
-8.25919 -5.1764 0.697012 255 0 0 
-6.03218 -4.35983 0.697012 255 0 0 
-6.34121 -5.71654 0.697012 255 0 0 
-6.72689 -3.22926 0.697012 255 0 0 
-4.30474 -7.81563 0.697012 255 0 0 
2.40759 -11.0979 0.307055 255 0 0 
0.464024 -10.9037 0.692715 255 0 0 
0.557177 -11.2978 -0.0492517 255 0 0 
1.81479 -10.9999 0.497571 255 0 0 
4.63445 -11.0444 0.384017 255 0 0 
5.17687 -11.0989 0.275892 255 0 0 
4.23164 -11.2986 -0.0895151 255 0 0 
4.19762 -11.093 0.297326 255 0 0 
7.48195 -9.42376 0.697012 255 0 0 
8.14557 -7.52267 0.697012 255 0 0 
7.88275 -9.66328 0.697012 255 0 0 
8.27029 -9.03323 0.697012 255 0 0 
8.76737 -8.99508 0.396387 255 0 0 
9.2416 -7.98762 -0.495331 255 0 0 
9.17308 -6.71414 -0.366481 255 0 0 
-5.99688 4.90366 0.241852 255 0 0 
-5.03461 5.18996 -0.295742 255 0 0 
-4.85949 5.30277 -0.507557 255 0 0 
-6.89424 3.44168 0.697012 255 0 0 
-7.55869 3.73999 0.697012 255 0 0 
-7.1409 3.93945 0.697012 255 0 0 
-5.96292 3.9389 0.697012 255 0 0 
-8.6971 -0.629495 0.191947 255 0 0 
-8.57615 0.157909 0.419372 255 0 0 
-8.57382 -0.70284 0.423755 255 0 0 
-8.48492 0.394121 0.590913 255 0 0 
-8.71435 -3.15659 0.159499 255 0 0 
-8.78655 -2.32995 0.0237411 255 0 0 
-8.75679 -2.12311 0.0797007 255 0 0 
-8.62681 -4.28162 0.324108 255 0 0 
-0.730663 -10.8362 0.697012 255 0 0 
-3.95323 -9.12299 0.697012 255 0 0 
-3.52983 -8.92654 0.697012 255 0 0 
-6.29008 -7.19212 0.697012 255 0 0 
-2.04598 -9.95884 0.697012 255 0 0 
-6.29712 -6.66602 0.697012 255 0 0 
-7.39648 -6.19511 0.697012 255 0 0 
-1.68374 -9.92815 0.697012 255 0 0 
-4.61547 -7.87566 0.697012 255 0 0 
-2.19542 -9.5624 0.697012 255 0 0 
-3.14918 -9.21674 0.697012 255 0 0 
-3.90887 -10.0717 0.697012 255 0 0 
-3.79192 -9.08654 0.697012 255 0 0 
-6.24857 -7.27963 0.697012 255 0 0 
-4.76978 -9.0133 0.697012 255 0 0 
-0.757406 -11.377 -0.184217 255 0 0 
-0.75186 -10.9875 0.548077 255 0 0 
-0.186431 -11.0816 0.365096 255 0 0 
-1.10824 -11.0992 0.341918 255 0 0 
2.59309 -11.2895 -0.0550019 255 0 0 
1.96911 -11.555 -0.547607 255 0 0 
2.4205 -11.2104 0.0954888 255 0 0 
2.24451 -11.3235 -0.115329 255 0 0 
6.32655 -11.3481 -0.204791 255 0 0 
4.11592 -11.5257 -0.515179 255 0 0 
6.56464 -11.4962 -0.485814 255 0 0 
5.63684 -11.5238 -0.527839 255 0 0 
8.53287 -9.77791 0.500779 255 0 0 
-6.89011 4.85477 0.233941 255 0 0 
-8.21111 3.37372 0.697012 255 0 0 
-8.67122 2.4516 0.240603 255 0 0 
-8.82065 1.63584 -0.0403807 255 0 0 
-8.78602 2.46903 0.0247337 255 0 0 
-8.87042 -0.909086 -0.133969 255 0 0 
-8.70818 -1.67187 0.171101 255 0 0 
-9.00261 -0.551648 -0.382534 255 0 0 
-9.00666 -4.14689 -0.390152 255 0 0 
-8.99773 -4.47787 -0.37335 255 0 0 
-8.79088 -5.43373 0.0155963 255 0 0 
-7.52116 -7.98965 0.697012 255 0 0 
-6.54132 -7.82203 0.697012 255 0 0 
-4.46696 -9.65017 0.697012 255 0 0 
-6.77395 -8.51887 0.697012 255 0 0 
-6.43776 -8.83261 0.697012 255 0 0 
-6.90553 -7.85106 0.697012 255 0 0 
-7.68424 -8.43979 0.697012 255 0 0 
-8.21129 -5.45515 0.697012 255 0 0 
-6.86908 -8.84604 0.697012 255 0 0 
-5.9598 -8.3872 0.697012 255 0 0 
-4.57236 -9.55389 0.697012 255 0 0 
-5.74265 -8.62602 0.697012 255 0 0 
-6.56808 -8.8159 0.697012 255 0 0 
-8.22653 -6.87588 0.697012 255 0 0 
-6.12739 -9.64406 0.697012 255 0 0 
-3.27997 -11.5587 -0.498918 255 0 0 
-3.28399 -10.9588 0.628897 255 0 0 
-1.3531 -11.5387 -0.481783 255 0 0 
7.01077 -11.4703 -0.485942 255 0 0 
8.87979 -9.89664 -0.186957 255 0 0 
-7.15289 5.1785 -0.481371 255 0 0 
-8.67448 3.1213 0.139271 255 0 0 
-8.58802 -7.69419 0.397048 255 0 0 
-8.4677 -7.59028 0.62331 255 0 0 
-8.9034 -6.14084 -0.195979 255 0 0 
-8.80788 -6.65781 -0.0163705 255 0 0 
-8.68388 -7.23686 0.216801 255 0 0 
-5.36907 -10.5848 0.697012 255 0 0 
-4.41962 -10.7715 0.697012 255 0 0 
-6.45645 -10.5747 0.697012 255 0 0 
-7.12399 -9.74949 0.697012 255 0 0 
-7.77971 -9.70918 0.697012 255 0 0 
-3.59176 -11.48 -0.347725 255 0 0 
-4.66904 -11.0322 0.505447 255 0 0 
-4.87431 -11.1246 0.333895 255 0 0 
7.14247 -11.3924 -0.408606 255 0 0 
7.95996 -10.4683 0.626917 255 0 0 
8.43606 -10.2955 0.224069 255 0 0 
-7.97236 4.85978 -0.419066 255 0 0 
-8.01499 4.79783 -0.393292 255 0 0 
-8.47573 4.03789 0.00561303 255 0 0 
-8.38373 3.89732 0.289695 255 0 0 
-8.61999 3.98354 -0.181322 255 0 0 
-9.01978 -8.12936 -0.414807 255 0 0 
-8.90121 -7.66283 -0.191859 255 0 0 
-8.81182 -8.51725 -0.0237764 255 0 0 
-7.17135 -10.638 0.697012 255 0 0 
-6.30719 -11.1123 0.372217 255 0 0 
-6.57706 -11.3375 -0.0482657 255 0 0 
-4.83562 -11.3433 -0.0775873 255 0 0 
-4.73842 -11.6188 -0.59657 255 0 0 
-8.93772 -9.26835 -0.27411 255 0 0 
-6.85117 -10.8572 0.697012 255 0 0 
-7.15584 -10.917 0.501012 255 0 0 
-8.62582 -10.2955 -0.207284 255 0 0 
-8.74946 -10.0852 -0.329539 255 0 0 
-8.31814 -10.2527 0.302162 255 0 0 
-7.34219 -11.2831 -0.254546 255 0 0 
-7.84357 -10.8023 0.202106 255 0 0 
10.1486 1.02852 -1.10115 255 0 0 
10.0295 0.86288 -1.69631 255 0 0 
10.1685 3.25512 -0.846347 255 0 0 
10.1685 3.30305 -0.630192 255 0 0 
10.1685 1.8729 -0.777282 255 0 0 
10.1685 3.31951 -0.119246 255 0 0 
10.1685 2.73704 -0.409801 255 0 0 
10.1685 2.30982 -0.8345 255 0 0 
10.1685 1.96231 -1.1066 255 0 0 
9.8995 0.20111 -1.67361 255 0 0 
9.8995 0.144186 -1.55084 255 0 0 
9.9315 0.446497 -2.21669 255 0 0 
-10.1584 1.59427 -1.09566 255 0 0 
-10.0821 0.98643 -0.636084 255 0 0 
-10.0547 1.27313 -1.21389 255 0 0 
-10.0426 0.854047 -0.648492 255 0 0 
-10.1675 1.94639 -0.35823 255 0 0 
-10.1675 1.64488 -0.47448 255 0 0 
-10.1675 2.41183 -0.468372 255 0 0 
-10.1675 2.20968 -0.7543 255 0 0 
-10.1675 3.33731 0.451214 255 0 0 
-10.1675 3.12507 0.51426 255 0 0 
-10.1675 3.03272 0.516602 255 0 0 
-10.1675 1.92899 -0.252587 255 0 0 
-9.8995 0.726877 -1.63093 255 0 0 
-9.19213 7.81271 -18.2049 255 0 0 
9.40387 8.10721 -18.2074 255 0 0 
9.73811 7.89305 -18.3322 255 0 0 
3.46485 10.5091 16.2613 255 0 0 
5.09942 10.421 16.3428 255 0 0 
4.63845 10.4474 16.3302 255 0 0 
3.48427 8.224 11.9486 255 0 0 
4.12304 8.61643 12.6769 255 0 0 
6.35162 8.32474 12.2492 255 0 0 
5.16405 8.45435 12.431 255 0 0 
1.19425 8.36391 12.1024 255 0 0 
5.18041 8.17938 11.9401 255 0 0 
2.40585 8.2487 11.9474 255 0 0 
5.78116 8.0301 11.6985 255 0 0 
-3.90483 8.29713 11.7687 255 0 0 
4.23384 8.20208 11.9409 255 0 0 
5.66565 8.30168 12.1791 255 0 0 
0.681273 8.4372 12.2119 255 0 0 
1.77381 8.33701 12.0787 255 0 0 
4.28735 8.40801 12.3113 255 0 0 
6.37037 8.45124 12.4761 255 0 0 
-1.13301 8.78673 12.7601 255 0 0 
-5.3266 8.92666 12.8336 255 0 0 
-5.22352 8.90595 12.801 255 0 0 
3.02887 8.71809 12.8126 255 0 0 
-4.29214 8.67356 12.425 255 0 0 
0.101295 8.82407 12.8787 255 0 0 
-2.82723 8.82232 12.7524 255 0 0 
1.398 8.64401 12.6116 255 0 0 
4.56378 8.66632 12.7846 255 0 0 
-3.6856 8.48154 12.1075 255 0 0 
4.6477 8.7505 12.9386 255 0 0 
-2.26141 8.55155 12.2925 255 0 0 
-2.96505 8.52843 12.2216 255 0 0 
3.06512 9.11614 13.5249 255 0 0 
1.07355 9.02346 13.2757 255 0 0 
5.52852 8.81774 13.0957 255 0 0 
5.39998 9.32311 13.9927 255 0 0 
0.960686 9.1138 13.4322 255 0 0 
1.75856 8.86458 13.0208 255 0 0 
3.08946 8.8163 12.9905 255 0 0 
2.11878 8.81723 12.9514 255 0 0 
5.17407 8.86157 13.159 255 0 0 
4.25706 9.03588 13.4317 255 0 0 
1.74577 9.19264 13.606 255 0 0 
4.15152 9.20608 13.7312 255 0 0 
-4.52898 9.18323 13.3256 255 0 0 
-4.59855 9.12378 13.2164 255 0 0 
-2.32748 9.32419 13.67 255 0 0 
-4.99702 9.49164 13.8573 255 0 0 
-5.48344 9.25305 13.4103 255 0 0 
-4.07787 9.28916 13.5339 255 0 0 
-5.83389 9.43144 13.7146 255 0 0 
-2.56638 9.17587 13.3948 255 0 0 
-4.17668 9.24597 13.4526 255 0 0 
-0.271172 9.22794 13.5843 255 0 0 
-2.09679 9.44751 13.9002 255 0 0 
-0.720204 9.67334 14.362 255 0 0 
2.74474 9.62524 14.4215 255 0 0 
0.448188 9.73975 14.5299 255 0 0 
3.33281 9.57325 14.3532 255 0 0 
3.9811 9.57364 14.3812 255 0 0 
2.69312 9.82242 14.7722 255 0 0 
-0.320195 9.67581 14.3832 255 0 0 
4.75941 9.39499 14.0942 255 0 0 
0.392704 9.6377 14.345 255 0 0 
-0.821916 9.83272 14.6426 255 0 0 
0.568913 9.97326 14.9521 255 0 0 
-1.37641 9.90166 14.7423 255 0 0 
-2.16468 9.76457 14.4644 255 0 0 
-2.86572 9.84079 14.5709 255 0 0 
-1.93142 9.93341 14.7756 255 0 0 
-4.16403 9.8828 14.5912 255 0 0 
1.71848 10.0783 15.1881 255 0 0 
1.75331 10.2477 15.492 255 0 0 
1.18317 10.1071 15.217 255 0 0 
0.700922 10.1002 15.1844 255 0 0 
1.46786 10.0527 15.1319 255 0 0 
-3.2214 10.17 15.1439 255 0 0 
1.15641 10.3722 15.6895 255 0 0 
-1.37378 10.3443 15.5331 255 0 0 
2.22523 10.3807 15.7494 255 0 0 
1.31463 10.4278 15.7954 255 0 0 
-1.44945 10.5835 15.9571 255 0 0 
-0.437157 10.6627 16.141 255 0 0 
-1.42152 10.527 15.8575 255 0 0 
1.14389 10.4365 15.8037 255 0 0 
-1.04861 10.4556 15.7457 255 0 0 
2.90735 10.3526 15.7281 255 0 0 
-0.521461 10.4096 15.6858 255 0 0 
-2.47528 10.4246 15.6304 255 0 0 
-2.59917 10.2682 15.3455 255 0 0 
-1.48459 10.2679 15.3918 255 0 0 
-1.78257 10.1623 15.1906 255 0 0 
1.01361 10.1919 15.3612 255 0 0 
-2.32335 10.0906 15.0398 255 0 0 
3.56242 9.94624 15.03 255 0 0 
-2.75794 10.1523 15.1316 255 0 0 
-3.11758 9.85837 14.5917 255 0 0 
-3.51691 9.91146 14.6697 255 0 0 
-2.72369 9.99256 14.8479 255 0 0 
-3.07334 9.90414 14.6753 255 0 0 
3.16491 9.89493 14.9217 255 0 0 
-0.213237 9.82178 14.6487 255 0 0 
-4.09216 9.867 14.566 255 0 0 
1.98899 9.75341 14.6191 255 0 0 
4.3762 9.7337 14.6842 255 0 0 
2.73917 9.59721 14.3712 255 0 0 
1.04097 9.74187 14.5586 255 0 0 
3.78794 9.62691 14.4684 255 0 0 
-1.21042 9.59679 14.2044 255 0 0 
1.33974 9.4952 14.1298 255 0 0 
-2.58889 9.68159 14.2982 255 0 0 
3.20823 9.66399 14.5103 255 0 0 
-5.4035 9.33098 13.553 255 0 0 
-0.532059 9.31576 13.7304 255 0 0 
-0.747556 9.30993 13.7109 255 0 0 
-2.16368 9.41818 13.845 255 0 0 
-0.0999424 9.22349 13.5836 255 0 0 
2.67401 9.41312 14.0391 255 0 0 
-4.63985 9.23616 13.4156 255 0 0 
-5.86328 9.38545 13.6311 255 0 0 
-0.282843 9.26466 13.6495 255 0 0 
-4.84891 9.2237 13.3845 255 0 0 
-1.12489 9.49829 14.0318 255 0 0 
-1.67957 9.0099 13.1357 255 0 0 
5.6039 8.8222 13.1068 255 0 0 
5.9448 8.74509 12.9835 255 0 0 
3.4186 9.10161 13.5138 255 0 0 
5.47394 8.83792 13.1294 255 0 0 
5.56925 9.3089 13.9744 255 0 0 
5.51301 9.0073 13.4335 255 0 0 
2.51548 9.07537 13.429 255 0 0 
-0.902852 9.11301 13.3525 255 0 0 
1.76476 9.03939 13.3332 255 0 0 
0.7225 9.06239 13.3304 255 0 0 
-4.04437 9.03796 13.0864 255 0 0 
3.22168 8.81033 12.9855 255 0 0 
-4.37282 8.56443 12.2266 255 0 0 
0.135673 8.70963 12.6757 255 0 0 
-5.09925 8.7479 12.5238 255 0 0 
3.25859 8.7641 12.9044 255 0 0 
4.05186 8.67853 12.7849 255 0 0 
-4.75965 8.49468 12.0858 255 0 0 
-6.11217 8.62863 12.2681 255 0 0 
-4.08813 8.64382 12.3804 255 0 0 
-4.46226 8.66132 12.396 255 0 0 
0.14592 8.68044 12.624 255 0 0 
-1.174 8.71917 12.6377 255 0 0 
0.272763 8.60592 12.4962 255 0 0 
-5.11612 8.59281 12.2461 255 0 0 
-6.56144 8.4204 11.8772 255 0 0 
5.7245 8.34188 12.2535 255 0 0 
-1.62573 8.37031 11.9953 255 0 0 
3.08328 8.42845 12.2972 255 0 0 
4.6684 8.10431 11.7844 255 0 0 
4.71862 8.56777 12.615 255 0 0 
6.55908 8.03991 11.7488 255 0 0 
1.84928 8.13028 11.7123 255 0 0 
4.97516 8.37222 12.2762 255 0 0 
-1.05542 8.22507 11.7596 255 0 0 
-1.61601 8.35338 11.9654 255 0 0 
0.72045 8.29427 11.958 255 0 0 
2.22689 8.2353 11.9159 255 0 0 
3.27818 8.51005 12.4513 255 0 0 
5.12602 8.208 11.989 255 0 0 
-1.63375 8.32854 11.9203 255 0 0 
4.61853 10.3965 16.1659 255 0 0 
